0.110997 -0.306785 -0.077747 
0.115275 -0.484542 0.075118 
-0.116258 -0.458543 0.138123 
0.283092 -0.143823 -0.184467 
0.145821 -0.197825 0.139669 
0.131322 0.135907 -0.001676 
0.243741 0.083603 -0.025207 
0.198913 0.027413 -0.248220 
-0.118242 0.078678 0.081388 
0.159466 0.086638 -0.262739 
-0.103680 0.223630 0.003842 
0.238946 0.128266 -0.196664 
-0.124189 0.145386 -0.149684 
0.354984 0.183316 -0.112629 
-0.230640 0.113192 0.008177 
0.294533 -0.096408 -0.179368 
0.252455 0.134138 0.000562 
-0.156782 0.124644 -0.073801 
-0.337228 0.100227 -0.016335 
-0.227918 0.115282 0.115167 
0.239857 0.384559 -0.010283 
-0.224292 0.045692 -0.024142 
-0.098932 -0.488804 0.290485 
0.021862 -0.338066 0.235586 
0.162374 -0.227321 -0.070808 
0.079603 -0.525909 0.113508 
-0.195263 0.108807 0.050680 
-0.222810 0.107190 -0.065178 
-0.094808 0.312034 -0.110104 
-0.037149 -0.310947 0.131519 
-0.098866 -0.078543 0.101324 
0.071663 0.179914 0.047348 
-0.342499 0.113004 -0.080650 
0.254409 -0.282285 0.186463 
0.393658 0.069849 -0.112437 
0.287289 -0.137283 0.223870 
-0.237902 0.058668 -0.003725 
0.015803 -0.203235 0.080639 
-0.351598 0.200451 -0.068770 
0.214964 -0.380898 0.011662 
0.185798 0.250750 0.119439 
0.353548 0.059846 0.139219 
0.225391 0.214139 -0.188718 
0.285869 -0.149061 -0.162417 
0.131150 -0.235004 0.007520 
0.079949 0.103295 -0.142521 
0.064340 -0.247218 -0.035297 
-0.003249 -0.507418 0.136207 
-0.023277 -0.476366 -0.071832 
0.040016 0.247218 0.034881 
0.110857 -0.492317 0.141283 
-0.130422 -0.036803 -0.081441 
0.064229 0.028380 -0.138077 
0.093261 -0.480775 -0.004132 
-0.122931 -0.484608 0.132592 
-0.320341 0.201192 -0.075528 
0.051453 -0.132998 0.161261 
0.065813 -0.554565 0.105026 
0.239147 0.250826 0.087428 
0.092706 -0.370087 0.263025 
-0.008169 -0.488891 -0.057784 
-0.359756 0.100741 -0.043340 
0.023883 -0.333752 0.010806 
0.257568 -0.057830 0.101610 
0.348407 -0.183863 0.026460 
0.207100 0.067026 -0.010618 
0.215108 0.012400 -0.144308 
0.155011 -0.152644 -0.214622 
-0.273247 0.036807 0.031148 
0.083806 -0.318602 0.013746 
0.229618 -0.033470 -0.152506 
0.085857 -0.521504 0.140176 
0.352137 0.260282 0.018230 
0.040858 -0.145142 -0.087607 
0.273393 -0.170314 0.212955 
0.210401 0.088366 0.233757 
0.268733 -0.320475 -0.009940 
0.173060 -0.032768 0.268976 
-0.064790 0.155721 0.059771 
0.140774 0.175654 0.185143 
0.248450 -0.124061 -0.203933 
-0.157301 0.086249 -0.186169 
0.452860 0.053666 0.018676 
0.010289 -0.244372 0.163462 
0.128269 0.160186 0.038614 
0.108760 -0.260200 -0.174813 
-0.273732 0.013297 0.010585 
0.239035 0.017879 -0.128322 
0.302465 0.179657 -0.195835 
-0.213242 0.004288 -0.104094 
0.219623 0.332528 0.050893 
0.016089 -0.174296 0.028690 
0.333781 0.050582 -0.158853 
0.349689 0.097063 -0.168989 
0.308666 0.192361 -0.073099 
0.229557 -0.180502 0.230975 
0.095601 0.139327 0.060055 
0.264102 0.277965 -0.147547 
-0.144646 -0.086608 -0.053297 
-0.103627 -0.501891 0.081131 
0.366270 0.253272 -0.121069 
-0.324442 0.160420 -0.110559 
-0.090829 -0.521129 0.180599 
-0.215489 0.030962 -0.119405 
0.093452 -0.529440 0.013769 
-0.000801 -0.152302 0.074808 
0.427534 0.159083 -0.037820 
0.188970 0.054664 -0.128291 
-0.009519 -0.394186 0.196144 
0.054896 -0.386331 0.272719 
-0.040776 0.233342 -0.057074 
0.200001 -0.395150 -0.027248 
-0.165408 0.007721 -0.109750 
0.223556 0.028903 -0.095230 
-0.337001 0.211136 -0.012664 
0.319157 -0.027262 -0.180825 
0.294966 0.285653 -0.141248 
0.212228 0.057290 0.236645 
0.445238 -0.040351 0.017859 
0.372879 0.232852 -0.115003 
-0.065469 0.280634 0.029714 
0.245980 -0.061680 0.245135 
-0.086898 0.182476 -0.203621 
0.037003 -0.560332 0.152465 
0.206308 0.241764 -0.194591 
0.115756 0.048239 0.066862 
0.194419 0.094275 0.082217 
-0.089399 -0.088173 -0.106287 
0.198936 0.095186 0.074334 
0.251454 0.137435 0.074963 
0.228980 -0.062423 -0.018979 
0.379875 0.205640 -0.075814 
0.243788 0.366627 -0.103520 
-0.079904 0.148363 0.106517 
0.159766 -0.210204 -0.079036 
-0.096571 -0.502873 0.090764 
0.176112 0.059175 0.000339 
0.257400 -0.338432 -0.040052 
-0.060839 -0.131406 -0.094758 
-0.151125 -0.005519 -0.122772 
0.077027 -0.340007 -0.094118 
-0.026552 0.273542 -0.083645 
-0.170600 0.194861 -0.037403 
0.056336 0.137992 0.102936 
-0.100234 0.274745 -0.201034 
0.217993 0.100412 -0.201879 
0.249851 0.355015 -0.159044 
0.279935 -0.284998 0.066437 
-0.212583 0.130363 -0.051997 
0.217026 0.078867 0.091879 
-0.211205 0.048746 0.116078 
0.326346 -0.220601 -0.091159 
-0.098280 0.135071 -0.196553 
0.240108 0.366651 -0.031728 
-0.038782 -0.165950 -0.060458 
0.160833 0.110446 -0.247332 
0.194635 -0.130602 -0.217724 
0.101794 -0.270653 0.070889 
0.070230 -0.292189 0.023428 
-0.293438 0.118632 -0.087228 
0.118304 -0.273636 -0.022649 
0.313185 0.309712 -0.074921 
0.078587 -0.554488 0.142501 
0.213747 0.279172 0.120777 
0.247067 0.054381 -0.132038 
-0.179144 0.113271 -0.009658 
0.186476 0.184186 -0.206387 
0.177995 -0.175594 0.092586 
0.185439 0.160373 0.220714 
-0.251125 0.061305 -0.030590 
0.323293 0.156280 -0.178437 
0.201200 -0.002444 0.144787 
0.061990 0.088329 0.111206 
0.113371 0.034653 0.006849 
-0.202667 -0.019128 -0.146649 
-0.168179 0.087102 0.078908 
-0.224622 0.047977 -0.018756 
0.337732 0.194247 0.093919 
0.168348 -0.059994 0.274113 
0.033585 -0.162129 -0.046473 
0.244204 -0.338495 0.030846 
0.031696 -0.078022 0.120399 
-0.261713 0.043480 -0.086018 
0.219035 0.189555 0.137513 
0.045927 -0.165302 -0.061621 
0.053403 0.057061 -0.164710 
0.107249 -0.518565 0.028646 
-0.062768 0.181582 0.059682 
-0.060587 0.178429 0.100611 
-0.151610 -0.042655 0.095536 
-0.198518 0.113546 -0.146608 
0.201882 0.307698 0.054704 
0.230235 -0.133750 -0.016862 
0.274577 0.384698 -0.032900 
0.245350 -0.324791 0.074217 
0.015508 0.143667 0.098632 
0.352571 0.117045 0.123521 
0.355148 -0.188253 -0.088540 
0.142869 -0.363106 0.241575 
0.137184 -0.451351 0.178221 
0.318396 0.350655 -0.061296 
-0.024032 -0.501698 0.146447 
0.270511 0.388793 -0.047014 
-0.033781 -0.453207 -0.068751 
0.138497 -0.177114 -0.192240 
-0.338595 0.118148 -0.104495 
-0.268250 0.072636 -0.015224 
-0.245799 0.060420 -0.070368 
0.373506 0.259308 -0.023683 
0.240970 -0.370393 -0.017793 
0.344994 -0.177089 0.140296 
0.142753 0.129858 0.013665 
0.227124 -0.087351 -0.179162 
0.306521 0.291837 -0.101281 
0.231741 -0.070087 -0.106742 
0.166295 0.176480 0.213666 
0.373178 0.179708 -0.128979 
0.270893 0.166243 -0.063490 
0.142832 -0.180516 0.214290 
0.232983 -0.336092 0.080350 
-0.099811 -0.468637 0.219501 
0.238307 0.016693 -0.189628 
-0.177093 0.157474 -0.128479 
0.294977 0.318770 -0.056951 
0.192226 -0.426354 -0.019223 
0.174027 0.052442 0.256267 
0.119574 -0.219890 0.203355 
-0.026351 0.292999 -0.006814 
-0.047375 -0.418554 0.253206 
-0.004981 0.241832 -0.149731 
-0.224819 -0.020137 -0.022662 
-0.081973 0.118245 -0.177648 
0.375849 -0.166080 0.040458 
0.376552 0.305859 -0.056128 
0.268226 -0.117998 -0.184380 
0.075702 -0.301536 -0.159244 
-0.077014 -0.547264 0.095580 
0.169485 -0.072282 -0.248564 
-0.065790 0.278431 -0.003643 
0.247135 -0.075887 0.112277 
0.022389 -0.305229 0.000308 
-0.039528 0.243351 0.040994 
0.249465 -0.335162 0.050029 
0.071241 -0.265574 0.147766 
0.154939 -0.120940 0.273687 
0.015092 -0.181961 0.105483 
0.093476 0.113485 -0.101046 
0.252620 0.228039 0.086115 
0.038764 -0.160588 0.000194 
0.239102 -0.062622 0.119208 
0.076692 0.131985 0.073583 
0.064403 0.088093 -0.021036 
0.103673 -0.185868 0.107685 
0.227024 -0.295067 -0.098618 
0.293655 0.273246 0.070977 
0.116751 -0.296268 0.047892 
-0.052039 -0.316001 0.177676 
0.296441 0.004569 0.202589 
0.208184 -0.028691 0.032513 
0.369288 -0.090685 -0.104628 
0.287800 -0.018805 -0.197774 
0.172687 -0.254072 -0.155161 
0.359725 -0.208872 -0.051596 
-0.231134 0.132777 0.041968 
-0.224234 0.064926 -0.055734 
-0.155442 0.228620 -0.006429 
-0.022368 -0.533742 0.191951 
-0.144450 0.260757 0.065263 
-0.040492 -0.138334 -0.005535 
0.053303 -0.162758 0.052309 
0.262415 0.220792 -0.204149 
0.071486 0.178020 0.097580 
0.006752 -0.534097 -0.020334 
0.324204 -0.227635 0.061907 
0.296642 0.289618 -0.114126 
0.094057 -0.248106 0.185865 
-0.063525 -0.298356 0.094090 
-0.030986 -0.362780 0.257002 
0.103134 0.187284 0.060675 
0.194920 0.063075 -0.251365 
0.124083 -0.259936 -0.068221 
0.391531 0.228907 -0.000306 
0.051531 0.228045 0.071431 
0.098630 -0.165899 0.253783 
0.216913 -0.110211 0.203147 
-0.087018 0.211938 -0.142040 
-0.158769 0.142952 0.008972 
-0.343863 0.169592 -0.020383 
-0.054324 -0.056908 -0.116561 
-0.035563 0.214194 -0.156282 
0.081961 -0.404473 -0.084041 
0.126991 -0.221715 -0.192062 
0.317044 0.341178 -0.036969 
0.092724 -0.495982 0.193770 
0.132217 -0.236944 -0.202732 
0.071706 0.086368 -0.131141 
0.320769 -0.185736 -0.114482 
-0.043410 -0.126416 0.072702 
0.355638 0.041348 -0.154564 
-0.342320 0.131971 -0.028125 
0.145697 -0.256925 -0.057624 
-0.216288 0.041082 -0.099762 
0.402706 0.101547 0.061829 
0.184841 0.170028 0.158685 
-0.125261 -0.541376 0.051438 
0.392587 0.037820 0.114595 
-0.026597 -0.321585 0.096750 
-0.151365 0.089737 -0.115034 
0.313826 0.241880 -0.121329 
0.101777 -0.481292 -0.015041 
-0.166933 0.148674 -0.174041 
-0.269121 0.025072 0.098563 
0.041057 -0.114028 -0.068564 
-0.087032 -0.406924 0.284280 
0.178669 -0.036503 -0.248407 
0.341953 -0.187857 0.101738 
0.071069 0.146481 -0.125479 
-0.133165 0.047120 0.079080 
-0.152322 0.026464 0.127626 
0.181605 -0.393849 0.111320 
0.092721 0.149221 -0.130051 
-0.293839 0.124418 -0.089507 
0.397445 -0.128057 0.088285 
-0.057418 0.282522 0.070470 
0.186363 0.035783 -0.252419 
0.287770 0.309473 -0.016818 
0.138845 -0.298796 0.253370 
0.122202 -0.200059 0.105752 
-0.146625 -0.003296 0.092078 
0.265396 0.133585 -0.060646 
0.130109 0.157325 0.197921 
0.443719 -0.086417 0.009339 
0.058299 -0.071147 0.158874 
0.310970 0.128274 0.150649 
0.308532 0.099938 0.177588 
0.146383 -0.167223 0.268915 
-0.126032 -0.494385 0.182269 
-0.016836 -0.429123 0.301901 
-0.013491 -0.165162 -0.000802 
-0.115283 0.238571 -0.193484 
0.162363 -0.303712 -0.114832 
0.217793 -0.095756 0.258242 
0.324804 -0.231548 0.048502 
0.183434 -0.184942 -0.190161 
0.291308 -0.113114 -0.173277 
0.088189 -0.237307 0.168146 
0.289512 0.186727 -0.197492 
0.422679 0.126713 0.026811 
0.276576 0.119205 -0.212416 
-0.124919 0.205487 0.021999 
-0.117438 0.209220 0.016715 
0.235732 0.336887 -0.147146 
0.118512 -0.215856 0.225497 
0.128482 -0.298539 0.078076 
0.410070 0.175715 -0.069928 
0.047600 -0.367684 -0.018721 
-0.155734 0.113502 -0.103516 
0.183600 0.027438 -0.246363 
0.288572 0.319795 -0.150859 
0.053665 -0.546409 0.141572 
0.125645 -0.272679 0.128883 
-0.010490 0.246511 0.084389 
0.030166 0.191502 0.104119 
-0.082683 -0.519173 0.199241 
0.076514 -0.263805 0.046699 
0.024048 -0.358011 0.144695 
0.197445 -0.239219 0.221131 
-0.191528 -0.020327 0.014061 
0.252016 0.284857 0.114639 
0.005993 -0.386482 0.165709 
0.095048 -0.334196 -0.068233 
0.398390 0.068463 0.092679 
-0.170128 0.187717 -0.061867 
0.036585 -0.528433 0.253452 
0.023397 -0.369806 -0.076544 
0.400138 -0.132053 -0.008313 
0.158452 -0.252653 -0.122447 
0.169184 0.030028 -0.259689 
-0.110473 0.005469 0.133917 
0.027437 -0.481850 -0.036343 
0.104064 -0.260577 0.134664 
-0.015559 -0.103401 0.070106 
0.143141 0.042918 -0.223923 
-0.060351 -0.318621 0.154348 
0.050304 -0.183286 -0.035537 
0.299758 0.230582 -0.028463 
-0.033055 -0.470830 0.036188 
0.259493 0.358742 -0.148424 
0.139264 0.087284 -0.031844 
0.083278 -0.304203 0.275503 
-0.313136 0.161627 -0.002316 
0.353295 -0.165412 0.132185 
0.303700 -0.030669 -0.198540 
-0.217003 0.123207 -0.047956 
-0.207750 0.165230 0.047781 
0.236356 0.354741 -0.171096 
0.106158 -0.296974 0.113453 
0.390941 0.090756 -0.113473 
-0.000614 -0.136889 0.154363 
0.002376 -0.152762 -0.086958 
0.256720 -0.128109 -0.207702 
-0.105124 0.136066 -0.183740 
-0.043707 -0.377936 0.265168 
-0.110550 0.072054 0.088894 
-0.071180 0.191816 0.079201 
0.272239 0.340678 0.022477 
0.225713 -0.262105 0.216365 
-0.192821 0.047404 -0.124021 
0.270083 0.149538 -0.178807 
0.378201 -0.099504 -0.074910 
-0.108756 0.188450 -0.126673 
0.327611 -0.224007 -0.084642 
-0.299750 0.121517 -0.005551 
0.108722 -0.210507 -0.083177 
-0.083831 -0.414873 0.287001 
0.282371 0.269624 0.091852 
0.195477 0.036254 -0.141097 
0.361583 0.194111 -0.129498 
0.093105 0.088317 0.075919 
-0.201731 0.165873 0.044821 
-0.314831 0.077743 -0.043856 
-0.166071 -0.073374 -0.075167 
0.079605 0.041244 -0.149564 
-0.221206 0.114394 0.124340 
-0.067275 -0.312182 0.021994 
0.206745 0.046661 -0.115909 
0.067108 -0.413815 0.268412 
-0.151313 0.140648 -0.046876 
0.251302 0.398443 -0.100660 
0.319756 0.246837 0.070066 
0.133923 0.104032 0.073094 
0.165889 0.122948 -0.226735 
0.228160 0.325696 0.028134 
0.387817 0.031474 0.106057 
0.033381 0.205157 -0.143266 
0.080441 -0.183377 0.167179 
0.203672 0.010132 0.212669 
0.096374 -0.166609 0.279449 
-0.059882 0.242237 0.046452 
0.169005 -0.398228 0.133138 
0.055353 -0.146575 0.118658 
-0.054531 0.259062 -0.033307 
0.386330 0.131582 0.072675 
0.223777 -0.342567 0.117681 
0.037940 -0.324885 0.164842 
0.274114 0.344437 -0.116595 
0.144304 0.008519 -0.045832 
-0.283582 0.102161 -0.088637 
0.112428 0.021507 -0.112186 
0.125535 0.096864 0.085909 
0.082467 0.091341 -0.010401 
0.431914 0.042722 0.030748 
0.258784 -0.032736 0.234504 
0.249383 0.383364 -0.113544 
-0.149963 -0.002257 -0.045199 
0.196351 -0.157197 -0.200547 
0.320358 0.263816 -0.067180 
0.131613 0.146111 -0.070679 
0.354124 0.269858 -0.118172 
0.000107 -0.162783 0.017227 
-0.005618 -0.559439 0.124529 
-0.289660 -0.010929 -0.137329 
0.035601 -0.367613 -0.124695 
0.310026 0.007556 -0.185434 
-0.104217 -0.537750 0.095715 
0.092559 -0.283482 0.049282 
0.342930 0.193899 -0.155496 
0.203072 0.028887 0.202991 
0.095460 -0.251873 -0.168543 
0.064603 -0.509169 -0.014408 
-0.095197 0.196887 -0.217935 
0.133702 -0.130291 0.149465 
0.162833 -0.406988 0.182329 
0.206810 -0.090828 -0.098657 
-0.217998 0.145301 0.033463 
-0.067626 -0.552422 -0.023054 
0.317779 0.258781 -0.130915 
0.353396 -0.045914 -0.153750 
-0.031201 0.214321 -0.100444 
-0.126601 -0.535257 0.071347 
0.089516 -0.501534 0.179456 
0.391134 0.260223 -0.057581 
-0.007147 -0.301906 0.141809 
0.242304 0.359098 -0.048427 
0.176566 -0.396798 0.143872 
0.298294 0.194136 -0.124258 
0.198079 -0.292375 -0.102686 
0.100661 -0.216844 0.004028 
-0.073988 -0.099145 -0.111821 
0.107423 0.135308 -0.047595 
0.238647 0.349871 -0.145469 
0.019890 -0.188215 0.010359 
0.118319 0.023245 -0.032602 
-0.187525 0.124424 -0.171143 
0.248603 0.094691 -0.014614 
0.308350 -0.218785 -0.106080 
0.236875 -0.066930 0.134372 
-0.050514 -0.296333 -0.016691 
-0.032322 0.206872 -0.169405 
0.018752 -0.416586 -0.074975 
0.052179 -0.221171 0.243659 
-0.137672 0.144660 -0.122369 
0.297969 -0.279890 -0.027709 
0.080937 -0.518664 0.123208 
0.321322 -0.152526 0.191900 
0.222683 0.175821 0.180399 
0.252071 0.081554 -0.091897 
0.004369 0.109199 -0.144800 
-0.015175 -0.502760 0.127126 
0.285120 -0.209125 -0.140471 
0.038280 0.135332 0.073982 
-0.056049 -0.309080 0.024407 
-0.070235 0.287975 -0.216129 
-0.217672 0.099315 -0.117958 
0.249802 -0.139311 -0.191502 
-0.041538 0.121276 -0.142438 
0.240649 -0.140169 -0.084732 
-0.056943 0.272645 0.004868 
0.183416 -0.412724 -0.035975 
0.284432 0.189177 -0.045189 
0.332693 -0.191086 -0.113107 
-0.127112 -0.539015 -0.048822 
0.130658 -0.358811 -0.088015 
0.438885 -0.062209 0.066486 
0.278282 0.084933 0.203053 
0.089529 -0.167066 0.169727 
-0.138785 0.067601 0.115411 
0.278679 0.176343 -0.004734 
0.036901 -0.289798 0.146315 
0.111239 0.163910 0.010450 
0.155311 -0.192282 -0.200700 
0.331385 0.313636 0.000585 
0.251042 0.103660 0.013160 
-0.144905 0.134535 0.093349 
0.257367 0.201599 0.153306 
0.319215 0.223846 -0.121903 
0.220457 0.005635 -0.133036 
0.082554 -0.249577 0.149265 
0.154562 0.054664 -0.155981 
0.197619 0.028973 0.138951 
0.168001 0.017668 0.072341 
0.239746 -0.016074 -0.231462 
0.192956 -0.081191 -0.109573 
-0.036826 -0.529741 0.206769 
-0.211858 0.171066 0.094327 
-0.082804 -0.531028 0.134681 
-0.104468 0.323464 0.046226 
-0.221493 0.030163 -0.011413 
-0.055962 -0.478624 0.072909 
0.172734 -0.130552 0.271079 
0.196040 0.123923 0.178317 
-0.230821 0.045161 0.011401 
0.250685 0.110128 -0.176094 
0.076407 0.112199 0.081229 
0.109429 -0.358203 -0.103169 
0.299942 0.290298 -0.147550 
-0.115941 -0.532299 0.110724 
0.035675 -0.494409 0.276375 
-0.027500 -0.067951 -0.071709 
-0.010216 -0.413197 0.129164 
0.120519 -0.191961 0.285626 
-0.204266 0.017908 0.071530 
0.098585 -0.179872 0.086796 
-0.158580 -0.028165 -0.071142 
0.096697 -0.188888 0.066993 
0.237090 0.335533 -0.015538 
-0.076409 0.137339 -0.186366 
0.307794 0.337485 -0.020055 
-0.197935 -0.041789 -0.062210 
0.131491 0.154913 0.088776 
-0.199687 -0.028803 -0.127184 
0.289250 -0.279169 -0.074519 
-0.040585 -0.096642 -0.107012 
0.027886 -0.505998 -0.035177 
-0.039641 0.264491 -0.218082 
0.101309 -0.383081 -0.095359 
-0.154473 -0.011496 0.135414 
-0.032747 -0.100100 0.045233 
-0.058923 0.255175 -0.073761 
0.013564 0.239884 0.079074 
0.164486 -0.161665 0.182895 
0.124115 0.066345 -0.113763 
0.100317 -0.211860 -0.011808 
0.288956 -0.265057 -0.084349 
-0.069669 -0.428799 0.306283 
-0.108233 0.093157 0.086152 
0.183642 0.219082 0.174919 
0.247975 -0.322807 0.044410 
-0.191233 0.122885 -0.166670 
0.114973 0.139149 -0.122621 
0.271937 0.360163 -0.052392 
0.058531 -0.441481 -0.063906 
0.064775 -0.167434 -0.049127 
0.336787 -0.185339 0.113637 
-0.034615 0.268979 0.084934 
0.143199 -0.450341 0.094116 
-0.119569 -0.512073 0.065759 
0.008960 -0.366516 0.166293 
0.451685 0.014574 0.006176 
0.130695 0.083766 -0.030132 
-0.005490 0.138485 -0.149393 
-0.243659 0.078653 0.062378 
-0.085204 -0.489432 0.140928 
0.071692 -0.411021 -0.074839 
-0.049008 -0.541317 0.170677 
-0.212502 0.050070 0.075515 
0.238723 0.100213 0.044085 
0.011803 -0.405232 -0.117002 
0.285100 0.097429 0.198659 
-0.102784 -0.471677 0.158696 
0.241462 -0.264926 0.217720 
0.201857 0.062227 -0.213365 
-0.083999 0.173464 -0.160994 
-0.000415 -0.579208 0.013117 
0.207556 -0.021346 0.114699 
0.239332 -0.077789 0.260415 
0.252734 0.300213 0.024009 
-0.034678 -0.449670 0.127453 
0.208418 0.074245 0.219624 
-0.000664 -0.356166 0.121970 
0.217778 0.003237 -0.195102 
-0.020342 -0.550933 0.130998 
-0.311076 0.134091 0.009870 
0.126370 0.009103 -0.142238 
0.223552 0.055927 0.011692 
0.060956 0.108769 0.085209 
0.072127 -0.345130 -0.128365 
-0.064969 -0.075759 0.053497 
-0.219771 -0.023757 -0.080567 
0.114064 -0.127708 0.133640 
0.253182 -0.295844 -0.062473 
0.124622 -0.479562 0.000241 
0.225082 -0.109230 0.083849 
-0.049212 0.226964 0.082336 
-0.264260 0.064734 -0.027068 
0.083519 -0.305765 0.270616 
-0.324718 0.103135 -0.069477 
0.162294 -0.161660 -0.216626 
-0.280459 -0.019527 -0.064894 
0.402632 -0.121973 0.066462 
-0.087350 -0.093191 -0.046617 
-0.017653 -0.293935 0.142936 
-0.038701 -0.462600 -0.044891 
0.066684 -0.361967 0.130294 
0.008664 -0.372925 0.154134 
-0.042412 0.216933 -0.138121 
0.018996 -0.332080 -0.009986 
0.051606 -0.428027 -0.090227 
0.006660 -0.508793 -0.037670 
-0.091023 -0.530609 0.135164 
0.100834 0.132728 0.050590 
0.147930 -0.009382 -0.250677 
-0.298550 0.144814 -0.089984 
0.262722 -0.195028 -0.157662 
0.174874 -0.393260 0.173249 
0.199231 -0.346155 -0.076622 
0.122599 0.138697 -0.082775 
0.379422 0.175541 -0.125984 
0.225318 -0.171869 -0.117317 
0.351108 0.115144 -0.159685 
-0.058143 -0.506596 0.159158 
0.270913 0.122559 0.199588 
-0.126390 0.260318 -0.057223 
-0.249896 0.003514 -0.164609 
0.288107 -0.139292 -0.163906 
0.069610 0.095954 0.022429 
0.026679 -0.361280 0.109773 
-0.194465 0.015386 0.001175 
-0.019710 -0.307028 -0.001143 
0.292476 0.267640 0.031462 
-0.176739 -0.035932 0.057811 
0.402002 -0.155622 -0.034981 
-0.153441 0.226668 -0.027618 
-0.062067 0.320432 -0.070399 
-0.310481 0.198546 -0.074351 
0.227140 -0.061319 0.128154 
-0.031695 0.194021 0.059662 
-0.291578 0.051525 0.121930 
0.161263 -0.427226 0.085191 
0.000072 -0.375167 0.100085 
-0.057940 0.338121 0.071942 
0.197701 -0.148147 0.257550 
-0.144909 0.147244 -0.031670 
0.107664 -0.484228 0.142091 
0.210778 0.023192 0.211253 
0.325629 0.179018 -0.174104 
0.182281 0.145088 0.202934 
-0.161032 -0.019666 -0.100154 
-0.152549 -0.015548 0.129931 
0.231521 -0.190043 -0.172723 
-0.050671 -0.434993 0.200475 
0.112255 0.020310 -0.069222 
-0.139785 -0.546477 0.027976 
0.220600 0.026522 -0.144456 
0.352085 0.178906 0.079635 
0.030245 -0.506648 -0.027299 
0.232750 0.153605 -0.195677 
0.137455 -0.356512 -0.106260 
0.301042 -0.058633 -0.189935 
-0.211676 0.150742 0.119325 
-0.295910 0.107324 0.013242 
0.062288 -0.466336 -0.041970 
0.234419 -0.143516 -0.142099 
0.192821 -0.039642 -0.133850 
0.247944 -0.125854 -0.154972 
-0.228410 -0.019622 -0.071121 
-0.042819 0.322828 -0.002103 
-0.127886 0.185196 0.107020 
-0.218938 0.088368 -0.003042 
0.262850 0.312075 -0.170011 
0.165296 -0.309110 -0.105882 
0.110582 0.098452 -0.063323 
0.234430 -0.072571 -0.201236 
0.145962 -0.073229 0.279969 
-0.217564 0.076917 -0.014241 
-0.062513 0.144211 -0.145159 
0.026358 0.212263 -0.168042 
-0.045848 -0.145333 -0.061701 
0.146343 -0.197182 -0.071773 
-0.203318 -0.005865 0.057364 
0.258523 0.310184 -0.123626 
-0.055713 -0.322562 -0.024000 
0.230073 0.225856 0.107341 
0.292433 -0.105127 -0.172851 
0.257376 0.043124 -0.158838 
0.218081 -0.147542 -0.221640 
-0.131018 0.292879 0.074716 
0.007355 -0.191384 0.129529 
0.132259 0.058785 -0.068957 
0.105504 0.167049 0.021217 
0.399665 0.063680 -0.113350 
0.002377 -0.408531 0.087199 
-0.028400 -0.376906 0.263963 
0.295532 0.101494 -0.212113 
0.069081 -0.524766 0.003323 
0.135958 0.015708 -0.227107 
0.104095 0.104294 -0.097917 
-0.129771 -0.502716 0.188334 
0.239211 -0.141962 -0.154951 
-0.156537 0.193411 0.104330 
0.413590 -0.067784 0.100622 
-0.291662 0.085948 -0.017098 
-0.165592 -0.081687 -0.118707 
0.304164 -0.248927 0.052075 
-0.187310 -0.003016 -0.007134 
0.154296 -0.076578 0.239199 
-0.145848 0.073680 -0.124560 
0.088178 0.147472 0.060963 
0.039499 -0.160392 0.055739 
-0.244346 0.096282 -0.053940 
0.288620 0.210913 0.023014 
0.125212 -0.072236 0.220424 
0.132790 -0.411171 0.251592 
0.025309 -0.361931 0.037909 
-0.052007 0.334035 0.076597 
-0.136995 0.277692 0.089400 
-0.069091 -0.136255 -0.031591 
-0.036799 0.151262 0.069864 
0.380725 0.133552 0.072942 
-0.050235 0.287715 -0.134762 
0.220046 0.251742 0.132734 
0.215375 -0.036335 -0.200598 
0.225501 0.097069 -0.249145 
-0.024282 0.229104 -0.078884 
0.287975 -0.027300 0.214716 
0.168595 0.034187 0.234395 
-0.049812 -0.518706 0.138523 
0.181028 0.009427 0.241266 
0.201486 -0.365658 0.168540 
0.235745 -0.028457 0.201139 
0.203443 0.058866 -0.263393 
0.206716 -0.244037 -0.148821 
0.032181 -0.266817 0.288152 
-0.189600 -0.047981 -0.049308 
0.378430 0.180280 0.058184 
0.169000 0.047504 -0.155245 
-0.000133 -0.347102 0.087342 
0.110600 0.041771 -0.024214 
-0.113549 0.321786 0.070965 
0.169914 -0.236740 -0.094423 
0.045436 -0.323790 0.185529 
0.229859 -0.098671 0.102455 
0.179887 -0.369496 0.224341 
-0.047912 -0.494893 0.282069 
0.041556 -0.246009 0.267753 
0.156847 -0.068293 0.238392 
-0.041632 -0.335729 0.159084 
0.047905 -0.385093 0.098654 
0.074971 0.103522 0.000829 
-0.258447 0.090213 0.018990 
-0.083586 0.137101 0.087245 
0.201053 0.177259 0.191546 
0.232444 0.349647 -0.043300 
0.185483 0.167675 0.163130 
0.387259 0.037198 0.096914 
0.216425 -0.361128 -0.060426 
0.087988 -0.275595 0.029775 
0.189328 0.003767 -0.248991 
-0.195393 0.017323 -0.004415 
0.212900 -0.062559 -0.125479 
0.313914 0.038866 0.194390 
-0.358374 0.139681 -0.050992 
0.086848 -0.176520 -0.044218 
0.201932 0.105656 0.177041 
0.272273 -0.297352 0.068156 
-0.192461 0.145432 -0.054984 
-0.184767 0.038064 0.121768 
0.266419 -0.263518 0.202266 
0.100984 -0.483837 0.214586 
0.042835 -0.290678 -0.019766 
-0.044326 -0.315416 0.203583 
0.351636 -0.205858 -0.048443 
0.204436 -0.204013 -0.132021 
-0.017094 -0.127255 0.128763 
0.033941 0.254618 0.047255 
-0.043658 -0.045745 0.140291 
0.151102 0.075662 -0.093115 
-0.107795 -0.063869 0.120703 
0.358897 -0.086205 -0.123981 
0.122702 -0.292875 0.101414 
0.291417 0.116249 0.180965 
0.007359 -0.517655 -0.053802 
0.235045 0.080698 -0.024841 
-0.068448 -0.502976 0.280715 
-0.254240 0.076801 0.126567 
0.427874 0.130034 0.004444 
0.093982 0.116117 -0.037291 
-0.206596 0.077222 -0.004146 
0.208978 -0.188889 -0.092578 
0.177531 0.134198 -0.257704 
-0.017413 -0.509546 0.275503 
0.010974 0.174647 0.084331 
0.171249 -0.387454 0.230212 
0.263015 0.262500 -0.204121 
0.096302 -0.207001 -0.024660 
-0.222079 0.121302 -0.006244 
0.058698 -0.505250 0.118925 
0.022013 -0.419150 -0.040428 
0.350806 -0.203889 -0.069032 
0.253363 -0.338850 0.000166 
0.283447 -0.113452 0.223159 
0.367864 0.268303 -0.105988 
-0.225228 0.057939 -0.109240 
-0.020473 -0.490822 -0.056182 
-0.047601 -0.294430 0.013761 
0.220264 0.075114 0.173018 
0.163618 -0.179786 0.130680 
-0.045198 0.240413 -0.068778 
-0.034107 -0.329074 0.173597 
-0.262533 0.024164 -0.129556 
-0.146045 0.179388 0.106517 
-0.101436 -0.547866 0.055627 
0.366694 0.158153 0.090477 
-0.041470 0.295793 -0.053372 
0.142757 -0.432879 -0.024466 
-0.027662 -0.316962 0.123719 
0.377484 -0.151081 0.048411 
-0.124173 0.293815 0.060240 
-0.135515 0.178980 0.009831 
-0.122805 -0.018997 0.101578 
0.007611 -0.376958 0.299248 
0.211584 -0.041366 -0.198221 
0.130873 -0.067959 0.242674 
-0.045886 0.152165 0.085501 
0.268190 0.249967 -0.177402 
0.290617 0.247084 0.062536 
-0.346107 0.189166 -0.062251 
0.195740 -0.028543 0.221952 
0.208092 -0.177168 -0.153531 
0.054435 -0.249785 -0.025979 
0.145458 0.033311 0.025883 
-0.008725 0.142110 -0.183708 
0.148349 -0.297342 0.257539 
0.299756 0.048927 0.195441 
0.430419 0.025209 0.044790 
0.311057 0.248990 -0.062813 
0.234168 0.101455 -0.235581 
0.184201 0.036337 0.148876 
-0.115946 0.274415 -0.039152 
0.355995 0.293497 -0.104504 
0.058633 0.081370 -0.047948 
0.255090 -0.121270 -0.102882 
0.388450 -0.042693 -0.089660 
0.256838 -0.100822 -0.063220 
0.047417 -0.151801 0.165524 
-0.052972 -0.062720 0.152238 
0.381985 -0.011787 -0.152906 
0.032188 -0.184046 -0.076704 
-0.018167 -0.296542 -0.023390 
0.165169 -0.021280 -0.050535 
0.133497 -0.494059 0.029452 
0.250011 -0.135995 -0.143735 
-0.034438 -0.275528 0.161776 
0.424044 0.028994 -0.058093 
0.198117 0.043371 -0.216706 
0.160832 -0.226862 -0.129978 
0.425659 0.167878 -0.038756 
0.229346 0.056465 0.021401 
0.116866 -0.230240 0.261881 
0.290945 0.344630 -0.127630 
0.264954 0.189538 -0.206047 
0.001739 -0.115738 -0.107578 
-0.211938 0.006090 -0.096410 
-0.143344 0.133124 -0.098342 
0.116241 0.043641 -0.065284 
-0.145347 -0.036128 -0.090478 
-0.091005 -0.474939 0.153527 
0.325935 0.010198 -0.165267 
0.064437 0.225414 0.056684 
-0.255461 0.113154 -0.082895 
0.151254 -0.280972 -0.131625 
-0.018366 0.226683 -0.116413 
0.209978 0.017791 -0.210852 
0.013202 -0.538101 0.214758 
0.156297 -0.214407 -0.151061 
0.023556 0.131681 0.083389 
-0.126334 0.113135 -0.135897 
0.126584 0.123332 -0.014838 
-0.041263 -0.040251 0.131846 
0.056153 -0.300155 0.193273 
-0.056689 -0.350486 0.037791 
0.203398 -0.363537 0.167221 
0.104520 -0.520589 0.036084 
-0.030233 0.157643 0.103813 
0.058426 -0.550244 0.007794 
-0.059298 -0.111614 0.034726 
0.123106 0.046528 0.038760 
0.253080 -0.317235 0.073175 
0.271508 -0.132828 0.227736 
0.253746 0.152292 0.116979 
-0.218882 0.077163 0.032312 
0.130009 -0.307878 0.021172 
0.011953 -0.548279 0.125993 
-0.103538 -0.482593 0.163205 
0.180643 0.014913 -0.140162 
0.313546 0.279310 0.024774 
0.159246 0.156737 0.208676 
0.233638 0.231294 -0.181946 
-0.153207 -0.039487 -0.134695 
0.037740 -0.262583 -0.003373 
0.408498 0.071712 -0.084705 
0.030160 -0.391039 0.000056 
0.251092 0.320659 0.055305 
-0.045032 -0.348075 0.102672 
-0.238688 0.110883 -0.066238 
0.138648 -0.223017 -0.195355 
-0.142649 -0.480164 0.141684 
0.003866 0.066387 -0.158793 
-0.112611 -0.060268 0.121673 
0.167249 0.017980 0.110758 
0.248724 0.364942 -0.154210 
0.252403 0.116548 -0.029751 
0.236111 0.022638 0.215740 
0.274776 0.153887 -0.066975 
0.014050 -0.283505 0.279891 
-0.066307 -0.114019 0.016854 
0.016462 -0.301030 0.255967 
-0.127745 -0.479502 0.104364 
0.073136 -0.287760 0.153972 
-0.081616 0.245294 -0.000264 
0.279162 -0.145140 0.222447 
-0.033475 0.242069 0.045358 
-0.084370 -0.404245 0.277468 
-0.046091 -0.102628 -0.107870 
-0.177012 0.103773 -0.033125 
0.370155 0.267399 -0.008426 
0.328028 -0.149270 0.183913 
-0.254137 0.029540 -0.122521 
0.250583 0.098112 -0.055766 
-0.065783 -0.101892 -0.056663 
0.039444 -0.244697 0.239632 
0.149285 -0.005934 -0.073486 
0.109473 -0.282337 -0.118979 
0.109019 0.049061 -0.145529 
0.306096 0.248082 -0.023175 
0.175889 0.151372 -0.228903 
-0.024911 -0.338174 0.299497 
0.073148 -0.452555 0.268152 
-0.185222 0.096836 -0.024125 
-0.090127 0.187272 -0.156685 
-0.244121 0.042001 -0.164646 
0.365661 0.038114 0.129685 
0.178500 -0.411056 0.059817 
0.412921 0.229753 -0.070430 
0.392713 -0.120001 0.013757 
0.061862 -0.261013 0.018750 
-0.240323 0.005637 -0.159850 
-0.107895 0.066822 0.110765 
-0.038049 -0.058320 -0.103737 
0.120732 0.090732 -0.021625 
0.130042 -0.214522 -0.041928 
0.165259 -0.005491 -0.211415 
0.097247 -0.293354 0.010694 
-0.109936 0.235197 0.036854 
0.350218 -0.206528 0.049229 
0.031637 -0.210431 0.132911 
0.066299 0.121883 0.074071 
-0.118415 -0.474201 0.088697 
0.143638 -0.186013 -0.207615 
-0.011745 -0.502342 -0.048177 
0.016282 -0.168798 0.085170 
0.202730 0.134230 -0.241109 
0.166618 0.005677 -0.223852 
-0.028260 -0.051731 0.117657 
-0.192000 -0.028556 -0.025175 
0.152950 -0.009034 -0.261096 
0.148937 0.146740 0.226488 
-0.085640 -0.057567 0.082277 
-0.072563 -0.302141 0.113926 
0.251763 0.149671 0.114631 
-0.072995 -0.033541 -0.084467 
0.051905 0.187345 -0.151518 
0.126029 0.100110 0.014662 
0.182206 -0.014436 0.107212 
0.216182 0.128659 -0.212218 
0.279396 -0.189694 0.222406 
0.141219 -0.435333 -0.028949 
-0.219541 0.150283 0.056956 
0.266260 0.345623 -0.147100 
0.239146 -0.065021 -0.008415 
0.233176 -0.107220 -0.209307 
0.176048 0.091684 -0.023140 
0.147404 -0.022902 -0.226832 
-0.261281 0.075066 0.045318 
-0.338750 0.128893 -0.039841 
-0.279030 0.101238 -0.001917 
0.065886 -0.283782 0.143389 
0.309936 -0.096992 -0.175476 
0.183304 -0.172107 0.079837 
0.252242 0.369439 0.024762 
-0.056942 0.246062 -0.101875 
0.298422 0.198298 0.105056 
0.161879 -0.007533 -0.095200 
0.088754 -0.352613 0.161729 
0.080484 -0.157508 -0.091859 
0.042544 -0.335334 -0.106506 
0.157687 -0.206912 -0.073178 
0.065393 -0.439388 0.261245 
0.039117 0.055597 -0.154512 
0.143938 -0.447024 0.134019 
-0.110445 -0.531566 -0.037369 
0.310603 0.336829 -0.058579 
-0.230937 0.060163 -0.167039 
0.320297 0.048166 -0.185572 
-0.037688 -0.513952 0.223533 
0.262682 0.360655 -0.088001 
0.385112 0.243509 -0.071381 
0.121460 -0.339202 -0.128619 
0.238945 -0.098653 0.250701 
-0.093593 -0.071688 0.085089 
-0.147468 -0.024302 0.085619 
-0.156945 -0.081192 -0.089449 
0.172032 0.114837 -0.250405 
0.092729 -0.326616 -0.085665 
0.018422 -0.284530 0.262042 
0.120358 -0.226419 -0.033515 
0.323612 -0.263602 -0.057343 
0.195307 -0.097113 -0.186677 
0.184866 -0.376482 0.158620 
0.193795 -0.140051 -0.213081 
0.184817 0.091572 -0.222903 
0.290671 0.229682 -0.020089 
0.203188 0.093791 0.195171 
-0.067284 0.272025 0.042135 
-0.079160 -0.078892 0.096760 
0.270226 0.278477 -0.148311 
0.170887 -0.230533 -0.067063 
0.210333 -0.105678 0.171643 
0.339847 0.248857 -0.141372 
0.180476 -0.025685 -0.074317 
0.349536 0.242930 -0.135094 
-0.070789 -0.126383 -0.007047 
0.196960 -0.309561 0.215503 
-0.158369 -0.027918 0.113503 
0.138579 -0.249400 -0.050101 
0.222718 0.285218 -0.166824 
-0.274529 0.017815 0.038843 
0.182221 0.025584 -0.260027 
-0.003167 -0.331411 0.259721 
0.292859 0.212836 -0.021258 
0.154182 -0.162682 -0.178424 
-0.038506 -0.333836 0.144664 
-0.008158 -0.185743 -0.071548 
0.225698 -0.150436 -0.155699 
-0.143032 0.239865 -0.036646 
0.081121 0.124470 0.110947 
0.192011 -0.422753 0.002911 
-0.249654 0.009031 0.088706 
0.229317 -0.051251 0.024723 
-0.097423 0.340778 0.034080 
-0.034410 0.279029 -0.073064 
-0.214791 0.010684 0.102944 
0.046917 0.192639 0.042605 
0.308397 -0.281433 -0.086043 
0.236727 -0.133816 0.242463 
-0.230771 0.057373 0.131500 
0.261715 0.283271 -0.139085 
0.139900 0.155082 0.209365 
0.063551 -0.536649 0.192281 
-0.072962 0.305913 -0.167219 
-0.171027 0.017666 -0.112604 
0.259295 -0.007534 -0.204481 
0.061361 -0.174757 0.019625 
0.261488 0.364208 -0.128857 
-0.011347 0.095193 -0.135514 
0.117477 -0.432724 0.235788 
0.139875 -0.364618 0.247744 
0.100706 -0.160889 0.159396 
0.379098 -0.017819 -0.122024 
-0.029197 -0.506453 -0.055505 
0.021121 -0.412007 -0.054240 
-0.097443 -0.493695 0.262540 
0.351737 0.142153 0.111900 
-0.203870 0.094350 0.015888 
0.326702 -0.123007 0.198155 
0.047528 -0.439834 -0.075105 
0.045250 -0.557559 0.183296 
-0.036046 -0.577135 0.001502 
-0.056479 -0.460832 0.178494 
0.166589 -0.133550 -0.182453 
-0.014121 -0.102462 0.074702 
-0.151723 0.161830 -0.033219 
0.095545 0.162319 0.104999 
0.322052 0.265664 0.043542 
0.224508 0.284395 0.072713 
0.289701 0.317616 -0.057788 
-0.204765 0.095124 -0.163241 
0.171685 0.035811 0.090630 
0.030957 -0.494074 -0.030323 
0.016108 0.166890 -0.144215 
0.035718 -0.360567 0.103109 
0.431216 -0.036565 -0.024558 
0.348557 -0.188310 -0.091680 
0.356922 -0.195679 0.006451 
0.092815 -0.206873 0.037485 
-0.004241 -0.386678 0.280846 
-0.043056 0.211095 -0.171106 
0.230507 -0.045965 -0.189212 
-0.043517 -0.005352 0.126798 
-0.017546 0.244293 -0.185407 
0.065216 0.203153 0.038417 
-0.127385 0.222266 -0.212132 
0.388989 0.059487 -0.096495 
0.295171 0.266176 0.033308 
0.003173 -0.516114 0.283555 
0.150665 0.078816 -0.245806 
0.081019 0.116422 0.080313 
-0.225613 0.018298 0.082112 
-0.065959 -0.471597 0.137371 
0.316804 -0.190646 0.176103 
-0.087253 0.121516 -0.176846 
-0.187550 0.106859 0.012219 
0.088559 -0.143962 0.241126 
0.051844 -0.392004 0.268740 
-0.137832 0.145827 -0.202560 
0.227536 -0.314941 0.208921 
-0.119137 0.193872 0.015471 
0.036101 -0.142133 -0.091344 
0.137708 -0.464398 0.089461 
0.012721 -0.272222 -0.027168 
0.224594 0.101347 0.188665 
0.309466 0.276560 0.057766 
-0.139074 0.032679 -0.148704 
-0.114768 0.210576 0.039819 
0.239328 0.033525 0.121935 
0.399021 -0.122187 0.066677 
0.430181 0.184688 -0.022266 
-0.074359 0.307548 -0.148720 
0.251874 -0.283054 0.215083 
0.079154 -0.199118 0.166939 
0.094659 -0.137575 0.249306 
0.045159 -0.229315 0.092947 
0.182951 -0.278811 0.239797 
0.013221 0.074350 -0.160105 
0.289981 0.211437 -0.128571 
-0.029612 -0.285867 0.003977 
0.020607 -0.486530 0.268207 
0.106627 0.127835 -0.154958 
0.077006 -0.553591 0.088755 
-0.019720 0.234274 -0.085046 
-0.042511 -0.556820 0.113263 
-0.033447 0.217488 -0.146740 
0.062392 -0.553428 0.141968 
-0.027497 -0.335640 0.265416 
0.053699 0.125184 -0.147762 
0.209766 -0.098543 0.200086 
0.012105 -0.198334 0.085754 
0.145645 -0.030886 0.280805 
0.152500 -0.067209 0.241761 
0.327381 0.352173 -0.079709 
-0.080387 -0.552369 0.095705 
0.001343 -0.375053 0.006754 
-0.224493 0.025646 0.131173 
0.103708 -0.320020 0.103939 
0.132278 -0.140014 0.241775 
-0.067150 -0.140236 -0.057521 
0.295861 0.232722 -0.071616 
0.183785 0.179595 0.158865 
0.032201 0.201840 -0.144542 
-0.142175 -0.491447 0.115380 
-0.046207 -0.482870 0.294873 
-0.016594 0.183180 0.094500 
-0.308451 0.185541 -0.025240 
0.014537 -0.317331 0.305495 
-0.104317 0.265305 -0.253372 
0.236039 -0.319579 0.148300 
-0.106903 -0.531973 -0.033288 
-0.011264 0.276130 0.008786 
0.132868 0.074749 -0.067714 
0.066827 -0.480796 0.135350 
0.074463 -0.421204 0.255900 
-0.084567 -0.501003 0.234613 
0.357035 0.208637 0.067943 
0.242105 -0.123065 0.239422 
0.393238 -0.143213 0.004942 
0.147659 -0.409674 0.232265 
0.268759 0.132950 -0.032384 
0.184431 0.280480 0.103680 
0.170542 0.131262 -0.241511 
0.296824 0.228055 0.108592 
-0.225137 0.092513 -0.093066 
0.218862 0.246378 -0.188298 
0.212325 0.063425 0.020065 
-0.146008 0.089692 0.111417 
-0.096601 0.213678 -0.045709 
0.288191 -0.254540 0.106537 
0.131660 -0.118557 0.282860 
-0.070281 0.281917 -0.229759 
0.128385 -0.173836 0.130872 
0.268216 0.203861 0.101596 
0.081040 0.209185 0.065793 
0.394431 0.245138 -0.041786 
-0.044658 -0.110567 0.023515 
0.171356 -0.442484 0.017930 
0.131866 -0.232546 0.268207 
0.321950 -0.209933 -0.111987 
-0.171164 0.169883 -0.125543 
0.126316 -0.283696 0.272844 
0.109478 -0.497331 0.114585 
0.302360 0.354019 -0.021820 
0.332177 0.355838 -0.101991 
0.072217 0.097200 -0.044177 
0.094715 0.039336 -0.092488 
0.031486 0.122344 0.123472 
0.080949 -0.283059 0.154173 
0.149843 -0.014665 -0.048713 
-0.140669 -0.020442 -0.131518 
0.192984 0.129396 -0.253595 
-0.180242 -0.012557 0.114478 
0.158618 -0.429570 0.159979 
-0.124599 -0.481014 0.202623 
0.318222 0.270046 -0.086849 
-0.200426 0.036372 0.050770 
-0.090506 -0.022964 0.139552 
0.050918 -0.513562 -0.020185 
-0.095695 -0.014414 -0.120394 
-0.118238 0.171464 -0.069870 
0.076598 -0.200267 -0.022247 
0.401179 0.016222 -0.107968 
-0.104455 -0.468386 0.299668 
0.375194 -0.149720 0.080671 
-0.151572 0.165476 0.041968 
0.230599 0.133853 -0.238751 
0.144080 0.216391 0.162682 
0.122968 -0.362131 -0.102778 
-0.062456 -0.093730 -0.016810 
-0.119812 -0.515750 0.168541 
-0.031554 -0.547036 0.144602 
0.082060 -0.277075 0.050682 
-0.111001 -0.492017 0.184290 
0.103340 0.039966 -0.001768 
0.005815 0.155550 0.066162 
0.229467 0.065317 0.049492 
-0.303518 0.148012 -0.053506 
0.075853 -0.349487 0.148863 
0.201973 -0.090354 -0.101901 
-0.148177 0.023246 0.125624 
-0.126473 -0.552872 -0.012251 
0.112541 0.115114 0.059797 
0.080150 -0.275876 0.001892 
0.187484 0.023884 -0.250841 
0.187403 -0.076301 -0.110935 
-0.157377 0.116034 -0.113948 
0.383288 0.009618 0.126095 
0.123886 0.107204 0.079127 
0.322707 0.193105 0.111668 
0.172679 0.020651 -0.220996 
-0.104150 0.243284 -0.215868 
-0.239171 0.057893 -0.009295 
-0.008503 0.300868 0.064202 
0.254911 -0.096731 -0.121263 
0.107571 -0.338398 0.043147 
0.081164 -0.170014 0.094399 
0.155498 0.132910 0.066762 
0.185316 -0.400791 0.099331 
-0.069942 -0.477539 0.143721 
0.037877 -0.415769 -0.030130 
0.293289 -0.242594 0.139674 
0.156253 -0.215748 0.034486 
0.274176 0.344475 -0.172434 
0.235814 -0.047734 -0.132717 
0.035294 -0.344322 -0.015518 
-0.188480 0.010769 -0.000018 
0.269906 -0.275862 -0.095803 
-0.041638 -0.352945 0.303601 
-0.046461 -0.461530 -0.046415 
0.133897 0.009396 -0.099407 
0.398049 0.002164 -0.084950 
-0.282993 0.095186 0.010716 
0.012962 -0.385167 0.149685 
0.310553 0.227859 0.089850 
0.250104 0.073420 -0.105742 
0.325043 -0.229112 -0.081336 
0.117207 -0.296931 0.093099 
0.044363 -0.282410 0.175507 
0.155461 0.025997 -0.145933 
0.291137 0.195112 -0.161089 
0.063616 -0.548914 0.020032 
0.254305 0.088486 -0.089896 
0.108926 -0.379461 -0.098896 
0.217231 -0.119056 0.082844 
0.003601 0.160507 0.106565 
0.389367 -0.172080 -0.047382 
-0.211908 0.048393 -0.086049 
0.187606 0.240153 0.106001 
-0.107402 0.197484 -0.053036 
-0.000977 -0.431492 -0.115092 
0.136437 -0.431863 0.221140 
-0.077384 0.333215 -0.065766 
0.131379 -0.242431 0.260145 
-0.001216 -0.570634 0.085749 
0.160323 0.007349 -0.032919 
0.227244 -0.155815 -0.095542 
0.161309 -0.119299 -0.202294 
-0.227800 0.025322 -0.058670 
0.278513 0.198783 -0.031617 
0.112531 0.090079 0.066437 
0.072833 -0.496971 0.151185 
0.099634 -0.312431 -0.028694 
0.141682 -0.227623 -0.012590 
0.248755 0.317292 -0.179409 
0.346007 -0.032859 -0.140858 
-0.092215 0.316712 -0.063847 
0.205470 -0.154045 0.021647 
-0.124359 -0.454610 0.137301 
0.107265 -0.452938 0.239134 
0.046247 -0.394911 0.048845 
0.159048 0.071436 0.210252 
0.055737 -0.537085 0.233564 
0.117169 0.015815 -0.143328 
0.041182 -0.120067 -0.091875 
0.297478 0.299660 -0.142779 
-0.074835 -0.310595 0.132997 
0.184354 -0.123774 0.212280 
0.004211 0.226752 -0.168811 
0.410007 0.232083 -0.041823 
0.198604 -0.139060 0.134159 
-0.189854 0.004881 -0.140148 
-0.103964 0.003176 0.133987 
0.244455 -0.050169 -0.120360 
-0.017162 -0.174724 -0.050056 
-0.044227 0.317514 0.039434 
0.009504 -0.134799 0.021557 
-0.267769 0.045830 -0.065676 
0.037525 0.174792 0.099209 
-0.262271 0.090560 -0.054074 
0.245110 0.062678 -0.064796 
0.426650 0.050492 -0.048709 
0.419414 -0.064296 -0.041787 
-0.223904 0.086961 -0.039073 
-0.070478 0.289271 0.024558 
-0.042864 0.089928 -0.166170 
-0.101634 -0.003671 0.110412 
0.196231 -0.159554 -0.199010 
-0.043432 -0.329364 0.016514 
-0.150616 -0.009994 0.067492 
0.248712 0.372937 -0.082948 
0.363643 0.116572 -0.147905 
0.232574 0.109819 0.153155 
0.097014 -0.103059 0.151844 
-0.099385 0.179571 -0.145887 
0.200983 -0.018512 0.056222 
-0.075600 0.255710 0.003619 
-0.017393 -0.439645 0.077264 
0.328135 0.263775 0.059140 
-0.010080 -0.040701 0.151781 
-0.029829 0.175142 -0.153899 
-0.001981 -0.275724 0.147972 
0.210189 0.069102 -0.205283 
0.117278 -0.193881 -0.164775 
-0.002912 -0.391791 0.037108 
0.191792 0.088458 -0.005530 
0.252603 0.106321 -0.009857 
0.007631 0.236276 -0.178191 
-0.220263 0.037126 0.120499 
0.219638 0.057090 0.198992 
0.260655 -0.162023 -0.172477 
0.245640 0.327834 -0.010046 
0.295429 0.155761 -0.160200 
0.176377 0.036183 0.140180 
0.095313 0.113999 -0.117738 
0.061596 -0.244443 0.075883 
0.171868 -0.235311 -0.063896 
0.363200 0.067677 0.130939 
0.174058 -0.038098 -0.102524 
0.116310 -0.125490 0.137011 
0.189634 -0.138873 0.178934 
0.344298 -0.220443 -0.025605 
-0.036312 0.099891 -0.135966 
0.322117 -0.188380 -0.110525 
-0.162076 0.116146 -0.194317 
0.105847 0.164139 0.106739 
0.252442 0.126001 -0.189484 
-0.310622 0.069488 -0.017253 
0.209644 -0.020439 -0.190391 
-0.045770 0.252533 -0.086823 
0.082282 0.074821 -0.004681 
0.422490 -0.067045 -0.044725 
0.221566 -0.016854 -0.228574 
0.040753 0.154459 -0.189788 
0.434616 -0.084020 0.071583 
0.173826 0.178789 0.201187 
0.201761 -0.189077 -0.087027 
0.395579 -0.122359 0.055914 
-0.066373 0.131035 -0.178423 
-0.004218 -0.456035 -0.035710 
-0.030487 -0.150586 -0.085856 
0.344511 -0.108120 -0.131103 
0.256121 -0.275477 0.188437 
-0.035048 0.234801 -0.024670 
-0.024732 -0.374651 0.045880 
0.009754 -0.339219 0.136150 
-0.117175 0.099585 -0.132403 
0.156881 -0.158050 -0.163503 
0.131809 0.147836 0.232760 
-0.051714 -0.033405 0.141810 
0.354983 0.306329 -0.096706 
-0.124378 -0.050874 0.127114 
-0.289765 0.049234 0.072261 
0.202913 0.285101 0.117828 
-0.109006 -0.526718 0.130723 
0.012495 -0.119786 0.095134 
0.016933 -0.172735 -0.079536 
-0.095096 0.303798 -0.034571 
0.138664 -0.370988 0.233157 
0.085427 -0.469993 0.258534 
0.120931 -0.307076 0.086409 
0.022259 -0.194711 0.069382 
0.075182 -0.291953 0.174917 
0.098259 0.133013 -0.157041 
-0.291496 0.175961 -0.061059 
-0.007577 -0.409950 0.087820 
0.038195 -0.579105 0.086195 
-0.105224 -0.571374 -0.028052 
0.393108 0.074730 -0.114521 
0.036499 0.240584 0.080172 
0.037188 -0.301512 0.010817 
0.114658 -0.300277 0.142460 
0.244232 -0.087483 0.106354 
0.162193 -0.221274 -0.022642 
0.092699 0.113617 -0.092552 
0.387662 0.259858 -0.035990 
0.039575 0.193240 0.047047 
-0.095276 0.272917 -0.158435 
0.081609 -0.413524 0.261351 
0.027256 0.123405 0.074074 
-0.028502 -0.542401 0.171153 
0.067757 -0.281428 0.167322 
-0.130987 0.265990 -0.076714 
-0.371017 0.111012 -0.056989 
0.025148 -0.160109 0.136101 
0.124318 -0.305595 0.075629 
0.052061 0.073124 -0.017557 
0.156543 -0.229346 -0.016331 
0.221449 0.063346 0.188501 
0.232585 -0.094011 0.253585 
-0.098699 0.121288 -0.167302 
-0.153535 -0.080338 -0.084452 
0.034627 -0.313397 0.246185 
0.246343 0.067528 -0.102758 
-0.063648 -0.496311 0.114139 
0.073106 -0.489093 0.253484 
-0.037621 -0.098155 0.134212 
0.039851 0.198340 0.057727 
0.360994 -0.209233 -0.042624 
0.159366 0.017145 0.099781 
0.107762 0.062654 -0.052594 
0.241759 -0.149915 -0.193368 
-0.247578 0.006885 0.055981 
0.101148 -0.179722 0.119137 
0.396006 0.057883 0.096606 
0.269404 0.254414 -0.192521 
-0.031326 0.263524 -0.120692 
-0.043105 -0.128133 -0.087270 
0.124258 0.150668 0.192238 
-0.071290 0.151616 0.066934 
0.099158 -0.284840 -0.007239 
0.038867 0.199338 -0.156670 
0.236870 -0.155536 0.244821 
-0.085273 -0.115773 -0.030538 
-0.050681 -0.313126 0.179755 
0.163783 -0.409129 0.172724 
-0.059300 -0.141734 -0.042110 
-0.189819 0.162669 -0.100812 
0.311447 -0.229540 -0.092093 
0.214261 -0.087934 -0.079467 
0.224556 0.272189 0.116563 
0.094253 -0.272786 0.000069 
0.220421 0.288072 -0.165280 
-0.185504 -0.013967 -0.076692 
-0.196766 0.084527 0.035179 
0.025102 -0.360737 0.123094 
0.104824 -0.097829 0.150255 
0.385145 -0.100420 0.155439 
-0.132770 -0.510989 0.124326 
0.123699 -0.318180 0.016881 
0.142577 0.118210 0.208716 
0.217221 -0.395820 -0.030106 
0.034572 -0.373193 0.092644 
-0.010456 -0.379282 0.244322 
0.182185 -0.017552 0.017348 
-0.116146 0.119154 -0.139199 
-0.009315 -0.427950 0.102022 
-0.135769 0.006107 0.129262 
0.245793 0.070065 -0.113516 
0.356109 0.025995 -0.155956 
-0.095439 -0.144670 -0.055775 
-0.036734 0.084308 -0.160936 
0.117487 -0.283573 0.102524 
-0.096968 0.166494 0.096360 
0.170026 -0.207436 -0.035428 
0.181035 0.005822 0.102440 
0.086284 0.070150 -0.080747 
0.381462 -0.145710 0.056239 
0.080971 -0.186620 0.054605 
0.115319 -0.463238 0.175766 
0.075360 -0.542062 0.115922 
-0.289437 0.181177 -0.022380 
0.225148 0.035397 0.132457 
-0.163845 -0.068388 -0.127030 
0.263632 0.235261 0.076648 
-0.104104 0.277625 -0.127630 
-0.012566 -0.318327 0.135391 
-0.271462 0.082156 0.021459 
0.302063 0.109774 -0.204846 
-0.401028 0.164468 -0.026279 
0.185197 0.068380 -0.210147 
0.264217 0.158774 0.063036 
0.088425 0.099132 -0.017673 
-0.062519 -0.489222 0.022268 
0.199785 -0.043308 -0.066118 
-0.123355 -0.013878 0.133683 
-0.069514 -0.493386 0.112015 
0.237531 0.290728 -0.195749 
0.231371 -0.277276 0.218549 
-0.076497 0.227032 -0.105882 
-0.001579 0.146254 0.073677 
0.042450 -0.358041 0.015683 
0.175416 -0.126447 -0.190643 
0.154327 -0.259042 -0.073071 
0.301081 0.150349 -0.195912 
0.432443 0.022355 -0.042880 
-0.187913 -0.032699 -0.001189 
0.045465 0.051728 -0.147317 
-0.100909 0.064740 0.121894 
0.060246 0.112636 -0.150799 
0.420512 0.175826 -0.013202 
0.355670 0.255493 -0.115744 
-0.106135 -0.095141 -0.044367 
0.091343 0.098014 0.082796 
0.163558 0.019738 0.138537 
0.299617 -0.095420 -0.177461 
0.370461 0.168107 -0.126025 
0.143545 0.022567 0.008970 
-0.081655 -0.548486 -0.037240 
0.080503 -0.264510 0.058351 
-0.097682 -0.038290 0.109562 
0.376538 0.230078 0.022590 
0.173836 0.002808 0.134102 
0.187053 -0.008821 0.146099 
0.287237 0.195262 -0.029469 
0.076631 -0.273944 0.202878 
-0.179764 0.142164 -0.158084 
0.025589 -0.355251 0.147980 
0.187575 0.253761 0.105726 
0.009884 -0.402521 0.051069 
-0.131200 0.147132 -0.213199 
-0.092243 -0.455431 0.123349 
-0.217234 0.051484 -0.014520 
0.017457 -0.125623 -0.061794 
0.101693 -0.209281 0.169915 
0.046538 -0.374457 -0.125317 
-0.042831 0.090747 -0.168049 
0.066315 -0.534449 0.086434 
0.010448 -0.129492 -0.062538 
-0.077022 -0.085086 -0.025405 
0.127091 -0.186915 -0.176761 
-0.112877 -0.476639 0.165738 
0.253655 0.119926 -0.001385 
0.320519 -0.264880 -0.062758 
0.167884 0.121797 0.196142 
0.112604 0.049678 0.057903 
0.226583 -0.096654 -0.059244 
0.106297 0.064641 -0.050630 
0.086687 -0.328027 -0.121104 
-0.244874 -0.024825 -0.063474 
0.028158 -0.306923 0.183001 
0.272999 0.369166 -0.130940 
0.142425 -0.113135 0.277461 
0.155408 0.044714 0.258930 
-0.225589 0.002207 0.022732 
-0.254763 0.014590 0.054784 
0.181068 -0.421979 -0.011108 
0.211846 0.323466 0.065301 
0.393837 -0.108280 0.111004 
0.075089 -0.491145 0.253818 
-0.064571 -0.138970 0.014707 
-0.143826 0.076068 0.083468 
0.025037 -0.509451 0.264741 
-0.038518 0.229194 -0.056071 
0.043749 0.228829 0.092045 
-0.035204 -0.524149 0.137480 
-0.007238 -0.562388 0.110455 
-0.055238 -0.341468 0.086463 
0.084422 -0.516236 0.001168 
0.010853 -0.124078 -0.062271 
-0.049077 -0.495882 0.012491 
0.286709 0.176205 -0.105645 
0.355125 -0.036830 0.167332 
0.029420 -0.272740 0.151929 
0.067360 0.189622 0.043756 
0.158079 -0.004699 0.267650 
0.289765 0.381528 -0.073962 
-0.141903 0.140830 -0.075450 
0.003686 -0.110874 0.095039 
