52.846724 48.083633 1.789556
-13.003269 27.801229 -2.456233
57.209997 51.309164 -20.784406
10.127205 62.917563 -19.501864
29.867250 -24.603771 14.215682
-57.685526 42.256127 -20.353509
7.146477 41.125674 4.732761
-29.046256 2.805166 32.677535
3.291347 86.692780 -32.385384
-58.711375 71.821102 -13.701921
-48.378899 75.281275 -51.013600
-5.143213 30.840042 28.983975
-9.282466 71.712256 -28.892093
-15.649918 63.301775 -10.480974
4.535893 3.787257 28.614431
-8.435322 56.945998 -16.700910
2.063945 56.640223 -35.851716
4.158491 35.175667 27.893157
7.688530 45.952768 35.024641
-37.279766 73.489177 8.748095
-18.596114 19.150726 4.876989
16.556975 72.869311 15.599489
-14.082329 16.903986 22.903192
1.088829 -6.850699 41.030874
-21.908975 -15.641656 12.279957
-38.351627 -23.839621 22.865625
29.211863 -9.039887 1.051154
-19.477981 -1.563197 3.187636
20.596994 8.467102 -2.065796
58.602990 66.353126 -9.960258
-49.050784 69.472968 -22.523202
52.628096 53.682459 -22.215767
63.072796 50.806388 -4.479256
22.554476 22.021428 6.314988
54.004518 68.388444 -31.119709
11.748366 37.569067 -3.228267
-59.175308 64.235166 -18.688825
-31.222760 -29.246374 20.663354
-27.747931 41.206784 10.272260
21.087185 76.939919 29.820992
-14.690755 67.344094 34.744017
-17.672451 46.674655 26.205668
8.143474 6.580891 18.544416
14.701667 25.474803 16.604047
60.948561 75.881323 -9.311828
-39.433216 -23.624398 7.777067
-36.272047 -21.014241 18.169247
-22.535305 74.729842 10.340266
-15.851241 85.983012 20.308732
26.971810 78.975608 22.821376
5.401180 -17.337967 6.413049
23.252450 -25.459408 27.390746
-31.899559 2.753516 2.737407
-48.713306 -47.552179 1.719556
2.340359 19.035968 0.931022
31.008099 48.532525 -10.122267
-41.182105 38.225937 2.327057
51.744441 58.251439 -10.282230
-16.143742 1.629802 15.105955
-22.604013 75.712845 25.195623
-37.887246 -18.441493 -5.377241
-14.814237 85.268839 -6.030485
61.354131 61.760152 -18.049412
-41.918433 10.847905 9.679309
31.564985 12.015372 11.215104
-24.614007 14.389022 19.055301
27.963314 -38.628477 10.835856
13.262360 30.771823 -2.569209
-2.713030 71.800252 -27.007082
-38.393921 -48.032521 22.362807
-4.663548 9.122627 9.515553
43.421450 65.544083 -3.661211
17.405978 33.300308 23.877190
2.206731 -2.753491 35.608787
-2.060555 2.313432 45.285454
-32.457917 59.911401 -11.927817
-4.697504 42.484553 -10.223337
-7.126940 88.427635 -15.078958
10.027470 48.281238 -10.111420
18.923486 75.533951 -13.839378
12.071136 46.251110 -19.959014
-64.517206 61.954663 -29.748077
-23.518974 -35.362602 17.351145
24.595234 -17.520844 7.052467
28.227822 -48.540005 -1.834723
-13.751134 75.366462 -0.307919
-15.991281 65.308735 33.926123
-0.300284 4.651970 28.293408
-9.461719 71.674660 33.763057
47.939427 61.138992 4.678615
-41.939085 51.807169 0.070044
-28.047553 13.253794 7.126252
-33.143317 68.446607 -4.424847
13.106648 -54.546819 20.245004
-40.928089 -50.072823 15.174848
-17.883504 30.596997 29.682137
44.257005 80.433328 -14.063858
13.068873 -27.756644 13.384867
-7.155239 58.932292 -21.890939
9.692475 75.443632 -17.887654
-16.062259 48.621748 29.271514
47.185722 48.542441 -5.340343
-22.908923 82.443330 3.554140
3.652352 -5.265760 30.192163
-12.571238 7.212195 28.694783
33.103932 -8.420168 2.359358
37.178405 -2.132350 22.968361
38.588454 47.233652 -9.575626
-55.342401 55.844319 -26.820379
35.050729 -6.980232 2.529961
21.026686 -22.431724 21.537686
13.179108 61.685047 -6.693817
16.317495 -11.110787 2.950004
-27.709525 46.966966 17.812533
17.557323 -12.277478 10.300724
37.260266 51.921305 -9.274594
-16.149659 9.881109 33.039778
33.343159 -29.618096 23.330586
-12.509249 78.765229 -26.221664
-22.134904 69.982494 21.459836
13.569330 6.068677 -6.515865
-36.811507 -9.698043 -3.997098
-41.517676 -47.777632 2.093644
35.480137 -27.131690 22.438340
15.777546 -24.646358 24.596993
-50.412172 -20.010356 13.820328
19.866804 60.499397 27.898185
17.102916 82.821029 -24.422933
15.616407 -3.037135 2.719950
21.350571 14.191572 27.784870
10.941107 50.172277 -11.315980
42.452897 60.243523 -8.427826
24.583985 78.915927 5.508910
-13.479468 61.719383 -37.760010
14.776704 -13.894824 12.850401
14.849425 22.549483 27.640138
17.610705 -49.006921 -1.677981
28.502183 -29.914581 8.446863
-46.856680 67.126571 -12.501073
14.603726 82.553009 -21.080134
14.766517 31.505082 30.961748
-57.209188 -53.356527 -3.136841
37.530945 63.692233 -11.470493
40.637952 52.675130 -17.711272
-18.428724 52.597830 39.279761
15.941064 3.326750 22.186467
51.255551 48.843188 -11.796715
-48.882768 82.539661 -39.577811
-43.790695 -23.315933 13.809720
28.404838 -57.703530 26.039689
5.811369 84.193056 8.581618
-53.908301 68.499683 -28.150960
-18.157663 -22.855944 26.584212
8.555120 5.010009 31.411170
-18.811849 66.087904 38.400787
25.884125 14.281113 10.355311
33.783077 -1.273173 6.640632
-47.165694 71.174168 -12.821128
50.477639 76.710217 -43.141347
-5.451665 25.610570 31.525320
-40.668106 51.981109 1.493421
-20.120138 20.370896 21.971932
-18.791136 81.403657 10.027948
-14.286540 58.064083 -18.714203
-10.570780 25.060385 8.282227
23.039646 -56.306298 25.723107
-57.821508 55.737582 -11.167996
-36.077932 -47.330919 4.127368
-28.222514 21.327466 15.845552
-23.365607 80.635527 5.887762
-56.167586 75.618763 -46.810931
31.802087 54.683802 6.832887
28.372321 -18.306921 9.048858
-34.251622 11.294802 1.285352
41.566955 61.112689 -22.506349
-18.413225 59.342190 -14.840516
9.938611 18.927340 25.992190
-31.923219 -34.270686 26.948198
1.481415 52.977019 33.331956
40.039115 7.864482 8.716283
-0.603454 -3.198338 53.037889
-47.422394 85.364168 -43.515171
21.172357 -42.542696 7.312315
3.683491 34.759842 -16.056257
65.719325 65.969716 -22.897786
-54.793550 54.619721 -12.320106
-44.366721 -56.362424 15.679840
-1.983901 59.947020 -41.694602
21.405121 41.643708 -9.046870
12.931057 16.349051 29.660611
-37.815941 64.506185 -8.035888
39.327553 -51.250805 7.180203
7.341312 54.738909 -41.724988
-33.105673 66.297886 -19.013538
-31.787630 -9.300861 3.881390
-10.428643 85.156876 -34.480603
-7.367670 19.319966 25.084116
-10.600099 39.165211 -15.662474
58.613425 63.951727 -3.609161
0.136981 77.946807 -13.758101
-3.778802 15.973319 32.384154
33.853850 52.434382 12.715753
-33.048699 19.697096 19.335294
43.886567 58.637300 -22.789222
-48.680440 68.454762 -31.414039
52.439264 66.721248 -17.344219
-36.073509 -39.751497 16.112935
-33.587044 54.681278 33.524336
-49.187074 54.474918 -20.735482
-23.192986 -41.564903 18.190977
-24.568514 -34.443017 6.508443
-20.364045 81.490913 10.063314
15.284376 43.711695 18.459172
33.661170 -36.540304 15.760954
26.237871 -27.722228 18.812637
25.559681 -22.157013 6.198852
13.997088 61.236043 38.614370
-11.264134 60.321402 -13.702328
2.209529 11.603697 2.787538
44.511673 82.788491 -31.927665
-59.502195 60.472847 -37.654537
16.377897 -47.889902 26.085063
-33.513189 -38.530938 8.974166
17.269997 -45.280703 32.886703
-27.601188 78.937558 8.833801
-0.128210 16.182321 27.837966
-12.671442 17.256147 8.009086
9.420709 75.713262 -23.454767
-32.175280 -17.846291 -6.711728
2.910247 83.036792 -19.707991
-56.430514 -53.366972 4.438813
-44.299776 -58.898908 -4.681395
-28.611045 -2.475234 20.213285
-4.615001 -3.698425 34.219994
-41.276612 65.750846 -2.763034
37.803286 62.661669 -7.968001
27.116514 62.862475 13.110476
19.540821 62.033261 -7.237325
-18.893608 38.708824 9.300275
-28.210532 -30.482085 16.901707
18.813123 18.196494 26.129505
-6.904133 45.135175 -10.979389
-13.298362 63.613479 -25.647050
-39.456843 -33.679155 16.557484
-7.516701 33.793052 -13.693797
-36.524234 1.137931 6.814968
18.517154 33.068913 1.802478
-27.991039 -37.834525 14.321454
-30.523493 -49.120646 22.784501
43.081296 68.292814 -1.908981
4.225465 26.138704 -12.142957
30.012556 -23.999626 15.004964
32.310161 -32.748869 30.872004
-2.716870 16.419661 -1.712758
60.878063 54.754667 -6.236195
33.523383 59.306114 0.372675
-22.960627 47.940623 11.068843
-29.987342 45.747559 -5.158360
10.734121 66.651907 -28.034286
-19.903255 34.307291 18.122353
24.284520 50.098038 19.229399
6.000064 -30.571042 27.174085
-52.567689 74.921390 -13.301806
37.428357 -18.504666 11.747572
-2.835379 74.535584 -24.537618
-31.435285 65.313960 17.230843
25.071897 55.858643 -7.963468
-22.081578 2.187741 -6.538362
21.257121 78.821947 -1.235731
-60.462738 74.818412 -39.304397
18.549319 6.789278 -3.156849
-10.470582 2.698603 26.593579
60.649211 62.157029 -9.435831
-30.608480 -39.057251 5.664742
21.285949 65.467416 25.954540
29.640192 -28.666607 23.094087
-15.516741 -5.750254 17.200231
19.222488 19.641897 14.927690
-33.555685 53.071897 -9.557991
32.257577 -54.467596 0.893849
-26.638024 63.241020 12.517430
17.121594 61.205993 -8.851974
-50.010794 56.011563 -10.159250
10.322539 17.289679 24.363890
-22.624228 -29.007370 15.328295
-10.603657 46.181621 49.259564
14.605622 69.914424 -25.242046
11.601416 25.113035 32.833668
-5.499297 7.476836 48.131265
17.719644 -48.551542 -0.276289
20.799509 -50.373874 14.902361
-24.249936 -23.415535 2.567577
-20.155168 -37.279348 19.930757
-39.142509 54.722647 -22.803716
-25.606711 -16.871176 29.522410
21.554010 -12.663865 -0.473473
12.055310 81.576483 -28.901635
12.400592 -50.698531 10.948393
-49.296501 58.697443 -30.624689
-44.056109 -53.921102 3.234940
26.552826 -47.803917 4.787325
29.285709 56.137298 11.077595
8.309561 35.581008 29.342651
7.655066 89.139447 11.412553
-6.172396 60.513345 -26.755255
5.272153 28.730574 35.474960
19.789987 79.651755 24.200528
8.679511 28.017229 28.192536
15.025725 24.575881 29.452559
-16.931486 1.558965 22.637862
-11.581355 82.619478 17.531712
69.616109 57.954523 -9.489271
-8.322880 78.116622 35.454713
4.555932 54.332311 -44.576450
9.070085 35.782934 -6.108172
4.440433 78.365049 -20.704655
21.236742 -23.546337 27.201529
-20.470625 53.170545 36.700342
-39.079990 -3.283065 11.125308
-34.186924 52.651405 -12.770847
23.498662 -1.655816 -8.119365
-21.188171 71.624084 3.829775
11.635451 66.795857 -36.254788
-39.065285 61.100534 -20.286804
-31.904403 45.880335 22.633433
56.429818 77.363523 -35.800817
-3.680868 59.446279 44.535348
-26.962399 46.741241 -0.607579
-28.540753 45.005810 -4.379874
16.594453 63.870429 26.243473
36.547223 61.810122 11.845280
-45.580864 64.630092 2.918367
47.939761 54.321118 -23.945310
-19.219257 -25.740711 14.844731
12.241290 -11.708016 16.266883
-53.249647 -46.017040 -0.137350
13.277976 -23.242529 26.193441
-52.266764 81.982945 -58.629271
-38.487079 49.495608 14.505531
-44.894214 63.959309 -22.325922
-29.125051 11.674548 12.850244
-58.765157 64.735835 -9.037517
26.285142 -1.381607 -5.898458
-26.947957 67.800756 31.549377
-7.915027 70.765562 -26.308802
-46.260983 64.374319 -20.740242
-3.798675 15.921291 -7.485950
-28.762371 3.330869 21.494459
-26.813362 -48.683383 5.976023
39.172815 58.079980 -20.870429
-5.057084 56.479854 -41.081272
-34.437140 -26.244006 9.615825
52.582765 71.373362 -29.391621
0.653988 81.829433 -25.398263
-46.769482 60.192999 -23.679900
-5.706394 53.654913 37.967045
50.967883 44.720826 -9.706915
-32.544330 52.257457 6.752847
32.977035 -16.915195 12.339563
-19.069371 72.662124 -8.470506
-38.731322 52.481569 6.262336
-15.004948 56.294834 39.418495
15.287563 -28.182973 9.670383
3.692625 90.999999 5.278216
-2.504671 51.914389 -38.148818
-20.623293 -38.693719 18.457981
-22.144147 56.798200 37.950860
-17.251656 85.592002 22.414665
28.915884 58.470734 8.989742
-17.403043 39.354857 -9.133123
18.073572 93.123620 -25.787986
-1.686303 66.738945 -32.934032
-22.584920 94.974142 -26.873933
4.868385 50.474588 -29.695403
-12.898385 63.535543 31.641466
-25.619573 56.236393 20.913402
16.047882 93.169000 -31.547840
31.111081 -49.295585 15.924642
-39.251288 -3.203458 21.085509
-5.567933 27.032647 33.506698
39.817181 68.052608 2.130724
-21.649488 86.586476 -14.875075
-5.351489 58.648807 -11.319288
-16.301190 40.480075 -2.562902
11.898948 -12.569450 13.803733
-33.325406 -53.825455 25.342852
-46.072557 47.124148 -21.108197
32.759800 62.827468 15.160562
5.535523 77.183380 32.118189
18.991816 -45.265308 2.156650
5.099703 89.698467 3.943616
60.237420 67.525463 -4.446021
-24.002584 -2.320564 1.144505
26.764649 -42.793048 24.228563
13.880116 90.572630 -24.937304
57.448545 77.860210 -35.208237
6.390086 -0.106937 -3.669676
32.907191 1.518033 6.936846
-42.420191 78.785092 -48.354217
10.333374 58.530877 -14.565019
-11.439966 68.571127 -34.036011
24.368724 22.230394 13.080789
16.025807 31.137877 -7.991901
-16.442819 38.338221 28.827389
-51.496274 57.213225 -2.143651
48.181545 77.671792 -38.318997
30.581326 3.031120 0.828119
10.980453 91.761511 4.692773
5.188200 63.050124 -25.546419
19.008412 -31.952974 29.913720
-22.613958 41.825070 21.622374
-40.003650 -0.209281 22.793116
34.922646 -27.234058 24.248032
-55.317898 75.764119 -19.427572
12.999823 79.669723 -11.234852
49.036751 61.349702 -0.767125
3.195052 48.250338 30.968107
11.725550 83.231846 -4.878731
-2.205522 51.051195 -34.117872
8.149543 32.379197 -2.831340
-13.299716 75.687422 -26.042065
59.679783 86.404257 -49.369056
12.891079 28.147602 4.492303
-36.901410 -10.157108 0.930898
59.097236 62.371006 -6.765870
-14.966482 68.533439 44.344175
-35.889828 48.920820 13.569328
-0.069082 55.446018 -29.757880
10.254000 22.751381 2.691926
12.778738 -32.024917 19.811530
-24.872786 -23.392801 10.070702
52.451236 80.105639 -42.363326
13.906109 -14.435143 20.718499
34.366978 -8.605600 14.010444
2.447522 91.808587 19.364877
-45.830257 -53.085786 6.144117
-56.313926 63.334229 -12.967609
-28.349979 51.237354 27.318717
46.480527 68.360356 -25.272076
-45.220276 -4.552749 8.846718
-44.679601 -17.068532 7.295492
-16.408645 76.892764 -18.526171
-29.565477 -51.426223 23.184686
-46.684369 -17.730024 1.651022
9.851400 86.588860 -9.611720
22.968713 58.651361 -6.543314
-20.442749 29.071415 1.856965
-45.363398 60.400931 -29.223746
37.417040 47.886186 2.183255
-47.122624 -43.470711 11.597380
-24.229520 64.334164 -4.403477
7.721776 -17.422302 12.729114
-34.207255 -2.496438 21.308752
-50.290435 57.862118 -34.767779
-1.367694 47.147959 38.855307
-13.745831 68.174322 34.363469
14.237655 -48.600495 24.537906
6.921466 -5.854910 8.705174
-0.229349 53.477485 -15.196144
-0.230410 -5.591101 58.575952
12.829889 13.899007 6.504128
16.224524 22.999835 29.314277
-8.919016 20.702164 2.989043
4.139113 6.261127 37.472022
-26.592202 55.190953 -6.239927
-19.579900 74.757407 17.815661
-35.560928 -19.990514 18.602732
7.203349 61.251039 -32.758500
-20.057935 37.311506 -0.569530
12.027264 -20.231959 12.910660
53.023362 85.994959 -38.589747
-40.863929 -14.606312 0.734564
15.525894 36.526256 13.828017
-14.848774 -48.894628 17.268043
-22.457633 5.832576 18.837185
33.368401 48.759790 -5.505382
54.318148 53.781681 -4.147547
-56.636814 62.381625 -44.302580
25.949047 2.580496 20.898605
4.409894 42.863277 35.948745
-8.817159 10.302526 30.804269
23.375725 -40.881639 31.928130
-4.450062 58.924568 39.593216
-36.443046 -17.295074 -3.922668
41.853011 -47.402404 0.487833
13.445992 67.515311 -19.423318
3.716413 73.023595 38.324547
-0.839247 37.542486 36.823471
29.694545 68.077329 6.614806
25.680677 68.128382 -2.801889
-23.039008 21.678462 4.651912
8.042269 76.152437 38.825032
56.901879 62.964238 -25.177080
-44.759884 -50.332265 8.764217
-52.959094 71.290698 -22.773881
-47.924367 62.694612 -30.768267
-1.542560 57.591197 32.954469
-28.374055 -53.530239 9.036436
-21.444680 10.222483 22.865539
29.463544 69.338712 -0.729117
-19.533281 89.941506 23.411546
-23.814714 8.400520 11.069147
-21.177666 67.186270 -14.365929
-7.434541 62.337612 -30.715750
-18.623320 89.814301 -26.907984
-0.970049 90.847035 3.052734
-46.283398 -4.671773 -0.469702
0.852528 4.361725 17.613217
-14.379670 96.653003 -24.150251
-42.218784 -19.807671 21.879840
33.574620 -8.331606 8.076449
2.840208 72.246856 35.022925
8.967282 87.308956 32.689574
-11.787867 15.700165 -3.032750
-4.277775 83.171088 -0.183718
-34.800076 -21.005401 20.499812
-48.005129 75.690304 -39.769458
41.876631 69.061310 -1.569334
18.648372 -38.379453 27.694867
-21.395830 -25.542694 13.345000
52.312446 57.747896 -2.127998
-11.091821 19.233731 -0.340015
26.157348 74.256447 14.043085
23.986796 -22.202091 6.106089
-5.410775 -1.081806 52.678528
13.929281 1.726753 22.156984
15.045614 64.738751 -21.389970
-9.121439 5.711514 10.756604
33.172252 -8.232114 16.799342
-6.195432 62.998139 -38.050802
66.235186 81.044465 -18.728494
-18.584337 58.805056 -17.218095
4.701339 7.178654 36.879257
28.830650 62.547824 2.609767
55.153497 74.198778 -36.898098
58.203803 72.859753 -31.466013
-21.950202 -1.873772 -4.819222
-50.953396 60.708957 -32.943129
21.253176 -11.222788 -1.924427
13.633651 21.946045 6.102358
-33.228484 -27.072526 22.203705
15.057765 -50.339657 23.556953
-62.148580 71.095011 -37.882957
28.756996 -29.756794 32.146251
27.502037 -42.061125 7.881241
5.652135 95.528255 0.817571
-3.934376 4.451613 30.991513
-23.677759 60.566763 26.317880
35.199649 -21.534427 -0.263139
4.112293 44.567910 -19.746204
12.594557 -11.059233 9.422220
-42.964784 -14.152944 -0.713875
32.184307 -50.053495 2.687906
-24.030299 50.389495 8.687765
-22.170326 88.392674 -32.166141
-7.297196 88.153058 -10.900486
3.897324 8.177294 29.521349
7.538024 34.160687 -0.670326
-28.493282 -33.014659 13.941116
-13.257487 16.921395 33.637638
-41.317912 -17.736372 23.802022
19.678922 94.509752 -31.192623
-4.109221 92.801669 -28.490967
-9.711364 60.322886 39.846138
16.992000 39.609743 2.639142
29.683506 -16.934624 4.956893
-39.013809 -19.994186 7.298637
-25.356344 74.744833 -5.873212
-31.831205 -18.632299 -0.084056
54.117588 50.635667 -11.069730
5.144104 7.512718 -2.116139
11.084077 32.098572 26.745335
22.190294 69.301081 -5.299505
-15.416562 93.377072 -25.815076
-32.732083 10.329116 4.631533
14.293410 40.103032 -1.214069
38.301861 61.930977 7.762169
42.738526 -53.122465 7.089804
15.011922 68.687932 25.095500
29.315613 -14.640757 -5.381394
27.404765 -49.738727 19.090008
-11.964297 0.437997 -2.357003
-27.113667 37.576835 -2.448424
12.268689 32.582526 -9.738535
47.352290 74.405235 -8.180170
14.553731 68.283937 -18.940703
-1.522873 -8.600730 57.570609
13.336133 -23.977269 13.402332
6.430729 82.070892 14.518876
17.369299 62.763749 -17.049560
-63.773385 72.863220 -14.443615
-7.302072 12.841082 31.936809
35.134642 -42.205664 12.301521
-54.673724 82.204447 -57.128505
-11.279869 49.988577 -15.673536
-9.642394 68.308970 41.791842
-41.405811 -54.428349 24.968033
58.390373 85.054563 -25.585521
-47.679553 -55.839254 -4.055292
-4.584801 85.550008 8.320741
18.694015 33.233767 22.556387
-19.544255 -47.267720 15.333609
16.091830 25.821449 22.113549
-45.213711 64.400786 -8.621845
33.240917 0.342970 10.858009
-41.923210 -18.883892 16.692270
-25.178149 -30.370157 11.336274
-10.870335 -4.413154 11.379777
-45.649522 69.164327 -32.104688
-28.130161 43.675967 18.822598
21.859121 30.545195 9.452597
32.913023 52.620194 3.557003
-25.779423 11.122471 12.059674
37.138946 2.738717 4.242131
25.669541 43.301568 4.388050
20.854552 75.418404 8.364042
-15.899530 66.120191 -10.697510
-52.599940 76.099108 -39.766759
-2.870702 3.449176 25.617660
3.266373 61.810232 34.418933
-57.445616 50.593023 -28.878447
12.942608 57.039065 -25.763808
-42.019131 59.192717 -17.497312
-70.244195 67.296446 -44.009480
4.723409 5.715468 31.811821
-32.521591 55.450847 23.844246
43.237482 51.539400 -0.871652
-12.483600 64.361695 35.459283
29.887737 56.505026 18.333394
-29.717300 67.060428 15.467612
-26.919539 -49.379892 2.503190
9.416368 87.642093 -19.924467
-16.410588 46.719088 20.349189
-11.098025 32.474249 28.371402
-25.109721 71.668151 11.573368
7.241803 87.970680 -20.939943
-28.722188 -45.319692 10.157115
-48.150168 51.459944 -12.046275
18.100579 -7.369556 9.752174
7.092601 52.230016 -11.686453
-41.962536 -1.694371 4.324263
-58.993806 65.518577 -22.217246
12.930257 31.511976 12.018549
19.174164 -20.926469 27.012468
-7.435959 15.881477 30.205350
-2.154670 86.692773 2.458204
66.206624 72.401467 -32.376409
-17.974533 71.035096 24.014222
46.376181 53.724138 -20.921236
9.442166 -8.555922 6.165311
-36.537838 7.628433 19.217183
31.546658 -16.188400 -5.623743
-53.941887 76.909453 -37.644861
4.196127 5.064444 20.112060
8.141692 12.014274 -0.353931
13.076951 -0.606464 16.932775
-61.810025 70.374245 -23.825273
16.247626 -5.568353 -1.157008
-59.807472 75.886282 -28.885261
5.491748 72.158729 40.295719
19.524943 -44.542188 23.590572
-39.059990 -2.346846 2.023195
-10.550070 82.514793 -4.635496
20.548819 60.768169 20.796519
22.285021 17.987472 11.462369
-6.600568 87.533993 22.682698
30.234004 49.176450 12.911205
28.737598 -7.762558 16.384140
65.009827 67.295889 -15.527696
13.238755 60.689714 -11.435509
23.732182 -13.310579 24.514847
-51.565848 74.830544 -49.911820
33.011444 55.850738 12.625456
0.703650 67.700928 -31.068540
-19.321384 31.456331 -0.978121
11.267607 87.796102 9.918147
49.482846 61.466113 -2.046784
-8.978588 93.696615 -5.559751
25.103655 -12.513529 6.543762
49.409729 64.426948 -23.761018
-4.504693 37.248361 -10.148284
6.296435 84.127578 -0.224353
63.068883 75.214607 -31.794992
5.635961 -4.440974 10.731784
-26.048522 22.953298 16.152621
-9.649528 2.223871 15.843874
-61.126954 61.770995 -29.194135
-16.533773 32.845069 19.598319
-43.440038 1.092170 7.389896
18.786453 1.134033 -4.118818
-37.235876 -44.287348 12.579567
-59.733268 57.647909 -19.760306
-28.928977 -34.256585 18.614658
-25.036369 -22.517450 8.227297
3.447496 6.916939 -3.125877
-47.121364 -49.392769 19.949910
-56.904988 71.251217 -9.792526
-32.560573 -2.683199 22.053435
22.231113 -24.444453 1.081247
17.017322 55.310769 31.502407
-4.963717 1.688641 53.074373
34.633753 -57.803166 16.364746
27.390796 -35.399746 27.718304
0.158124 64.679470 -36.560989
-58.216697 54.050332 -10.931181
-43.748016 54.141679 -28.461723
-37.500432 16.638777 7.299418
17.336487 85.599493 9.981563
-13.611999 56.408111 -7.702205
-17.050373 52.944503 -13.487812
-27.354277 -11.757604 -1.244497
-5.857011 69.965605 -25.188652
3.688153 -49.894502 20.814489
42.285268 57.166899 8.379949
-17.497418 27.681650 -2.651688
-53.098059 54.425318 -18.302306
-60.889301 77.503844 -32.133968
26.059831 -26.696535 8.525078
49.657852 83.852145 -31.630774
3.016432 2.366476 23.294058
45.675682 77.895545 -12.551417
3.130610 62.478880 -22.326842
32.256614 61.469166 0.821628
6.026749 63.541308 -39.455625
0.705925 6.809751 14.439837
-4.923831 53.155824 31.911122
7.627024 48.802790 -15.292768
22.232618 -38.214601 10.877807
-42.257373 61.939663 -24.273374
6.009512 64.779032 -33.103455
25.601569 -32.680038 30.023390
32.833456 11.258261 11.699763
-1.930917 56.040767 -46.646253
-23.797638 38.470054 7.526408
-0.035255 68.000468 -43.712240
-23.438827 19.771866 17.263994
1.839178 -0.305946 30.376252
36.861654 -50.325419 3.407865
-38.283911 51.167635 -25.567207
28.417858 -32.019926 4.159289
34.493062 49.669785 6.963025
29.500008 -10.524637 5.808587
-35.783936 13.607909 17.049575
12.198235 29.165931 5.036418
31.793599 -43.319968 6.044698
-37.099067 -58.120672 3.837643
-26.801337 -47.463294 18.180148
9.329354 19.878231 26.464271
45.932030 77.403465 -14.015274
-25.909726 -45.761258 23.464188
12.927408 -2.050391 29.033832
11.431199 84.916144 6.220986
-20.593728 5.447218 22.903411
-41.953769 67.881922 -19.477356
7.045597 63.494888 -28.379460
-9.374258 13.474643 0.338183
-63.893675 70.606301 -30.195561
-43.678644 -48.223224 -6.811093
10.800350 -30.063254 16.819137
26.546638 -17.353167 13.445983
-9.747774 1.988413 30.609053
5.612083 83.433111 -13.854638
49.025067 64.561932 -18.229658
11.604732 86.673264 -22.972273
-23.354040 3.903559 -2.344874
-42.134083 49.864231 2.522160
5.391659 56.144446 28.948348
-37.330624 12.294135 19.120967
59.513145 55.456433 -12.797497
-1.779559 82.579197 27.920854
-18.694741 -5.340626 19.703401
47.096175 80.153745 -33.487251
-29.207574 -53.110707 33.295597
-6.675918 84.240326 16.668359
12.783975 -32.308308 4.172417
5.186175 39.319480 -10.006003
-53.390805 82.637345 -32.718987
-14.167108 78.373689 0.135096
24.117606 73.252130 22.751630
-25.718854 52.246476 18.903384
-41.087866 -14.771084 2.231925
-66.563707 58.886495 -18.991985
-53.249567 74.545583 -45.999128
17.505960 12.601470 24.120135
-45.364862 74.603645 -28.382842
-35.197935 41.002140 -1.580428
14.951227 68.826852 6.344218
-19.714472 52.256068 -9.395048
-24.669615 -0.468281 4.813289
-40.534894 -11.792468 -0.637546
-23.216368 -30.713502 21.833409
56.532370 68.269810 -7.059481
-22.724937 -5.657197 -5.941017
-56.279471 58.665854 -6.836964
-30.553928 55.123747 -13.242101
-37.623383 -43.781680 -1.519289
-15.647538 -0.664818 3.590224
-15.654888 33.775264 -2.202267
6.851602 76.459219 34.787099
23.823986 -33.417651 4.545020
-67.751910 57.871665 -22.176513
22.166082 -42.364362 32.570890
19.103721 -44.482061 21.478636
45.206317 51.217139 3.858484
-0.686238 -7.830551 34.918335
47.561433 67.249794 -4.494903
33.741327 44.876572 6.442127
4.794213 81.071181 27.438351
32.324422 0.744062 14.125350
-38.099753 -8.876823 1.448107
28.947446 6.824997 3.397438
6.510483 87.432870 -3.988727
10.162025 90.639092 9.315755
18.501638 -1.872249 11.676990
-34.635699 -34.002510 5.384567
7.485990 -19.033438 19.224647
-46.125670 11.689829 9.781854
58.058596 55.372292 -2.528894
23.769541 -20.246085 7.386669
-20.815258 57.406735 24.756914
15.939542 -52.572375 8.349438
-4.542506 79.441959 -17.988646
-30.774830 24.628959 22.604773
29.493173 2.339479 5.287081
-3.160247 28.360110 32.458881
38.472068 -55.612989 12.287429
-32.756797 43.937130 -1.642132
-27.318367 42.488259 7.753953
5.473978 35.962186 32.792179
-22.100252 -34.809880 14.387719
-18.998604 -22.100340 8.039772
-33.011272 3.818007 14.887381
24.820508 39.909476 -3.657732
-49.649083 62.124392 -41.659410
-49.111886 65.520609 -8.527237
-37.067004 50.362673 2.011947
11.600369 86.997923 -9.206836
36.760359 -14.895468 1.250866
45.148686 43.540121 -16.111804
1.091205 58.966477 38.822263
32.704491 56.478317 0.151819
48.037999 75.675147 -15.204579
17.218283 -6.534715 4.024847
-3.529540 58.296644 40.571715
-5.914189 87.569274 -22.613838
-36.462918 58.085215 -11.422930
-1.302045 86.998876 -21.185305
-31.021149 -9.646068 24.998659
9.493026 69.185993 -6.256669
21.851077 -9.564750 -3.572604
20.464384 -41.061640 31.447448
-62.827640 71.612674 -34.114355
10.322818 0.404557 21.582853
-12.258106 2.741351 26.289167
16.188340 73.376442 7.797262
-27.564981 27.202690 6.791913
16.280304 42.017805 28.859917
25.285149 -22.489445 2.140489
12.308151 32.705422 26.309434
38.643242 57.106118 12.071554
-31.189587 18.311314 12.792790
31.419839 42.123487 -13.015057
-11.460806 29.196741 33.559633
19.448148 -8.961138 29.268127
22.814281 -54.878474 26.550108
33.563995 65.828589 3.798995
-5.904907 82.355599 -22.597418
-11.818039 96.273820 -26.164840
-27.740005 38.997958 16.864886
-33.092082 49.889009 -12.260844
-25.860965 68.032286 8.839378
-57.891786 64.798590 -5.838237
4.457364 55.919137 -13.252893
-30.728734 44.294066 8.396366
-51.954968 64.928572 -8.535113
-2.143822 91.513343 -6.414551
-31.674169 -53.109395 -0.654199
-42.047566 0.528343 5.141234
-11.137754 20.695815 33.485211
-14.364704 28.401590 30.252766
-29.301543 72.049459 -4.194037
-3.938746 57.698979 -32.185607
-18.554467 39.243183 31.902488
46.727414 58.190003 -5.099557
11.518101 90.378461 -21.123870
-26.595855 52.686253 10.863088
52.987629 83.465711 -42.044118
-26.624971 -23.397570 2.019579
-51.762299 77.131446 -16.612924
-43.927254 -47.404243 -0.286232
-30.431996 -39.125877 11.798174
-17.632914 82.435451 16.177983
-7.856192 84.543178 -22.989367
28.632356 5.083560 7.820483
19.441689 62.341570 30.121748
-22.203385 66.719367 -12.868453
-38.080339 -34.717074 18.495011
44.213517 66.922689 -11.466690
16.389374 -15.099230 25.866334
-62.507699 68.553633 -59.437355
-25.247509 58.612731 -9.868173
20.564278 -43.561548 21.796476
-29.286691 70.344348 -9.070384
-18.419393 13.722057 0.857446
40.597677 58.357822 4.685756
11.587712 -6.826936 18.472738
-40.615425 -34.015399 11.331538
-29.732127 4.276103 15.792369
27.718863 -26.387423 14.019105
4.782357 5.038820 -0.832459
-31.279918 -49.694383 26.787665
39.818893 50.568585 5.440228
-2.869778 87.614833 23.514408
-56.948879 63.207777 -31.344708
-53.876894 -49.673648 5.826414
-36.221288 -38.326024 16.259672
45.246942 88.714348 -36.199098
60.896458 62.328703 -15.907778
20.023644 69.424536 35.484326
-42.460676 -51.604313 -1.764675
5.897233 27.314222 33.206872
27.607529 -20.274207 9.172658
-48.048438 51.442331 9.295794
25.865306 63.357084 -7.571297
5.455800 12.508876 32.374118
-42.672150 42.190991 -6.786825
14.940811 69.827587 0.987239
-54.461927 84.616455 -40.940859
42.939007 53.529767 -9.585327
64.334519 71.435940 -34.907586
-34.200542 63.373570 -19.389000
-19.054034 24.876848 2.912043
47.246636 60.537162 0.878177
8.830803 20.793665 32.615348
-56.190222 -47.790211 6.121860
36.438931 -6.221210 7.154428
-3.865954 69.054343 35.809637
-36.337857 -38.983392 24.948448
0.468788 5.201703 39.011871
-5.002285 86.309503 -12.930727
-39.393060 -8.999545 0.032399
-33.912041 53.401009 13.521206
-28.615261 -24.478053 22.501022
-58.902454 67.288952 -53.662268
-14.531408 24.545149 7.637894
5.544408 77.417076 -14.951869
37.550066 60.722165 -4.353875
38.765839 59.821787 11.104912
1.826304 -0.269018 50.210024
-16.782636 79.934111 -4.971960
-1.527134 69.106335 -29.931888
-0.666614 51.316883 -36.267157
65.721787 66.969010 -13.505950
15.633422 44.219291 -10.404535
-11.278218 83.452913 -15.782765
27.273801 13.440281 19.074579
-23.737458 31.619066 6.307391
24.143392 -18.843966 27.757249
-23.263078 48.638056 -15.429925
-28.907032 -20.904038 -4.335118
29.353560 -1.975059 -5.526622
32.222540 -54.179037 20.515108
-17.163219 2.359662 28.912742
6.528467 -9.902744 15.024124
-34.913496 -3.518037 15.985378
-36.843903 44.350006 4.717253
-56.748699 76.603065 -24.278119
23.372348 39.126698 8.462015
-15.442852 78.753958 34.453270
35.538032 65.510388 -6.869938
-30.918892 53.192943 -5.721305
-18.572735 -29.264808 21.516257
-19.463656 47.750088 30.862335
34.092995 62.832375 18.859980
-10.561437 33.497412 -3.839948
3.450282 26.078281 36.569708
-49.864378 63.926944 -1.458754
-29.193404 51.733172 15.410846
-26.059201 5.831139 25.979015
-19.834327 17.154432 16.083813
30.804735 -1.798547 4.074970
-4.620242 95.971825 7.328925
-42.617078 48.590173 -19.502756
-9.678649 55.112080 40.991041
16.909816 -32.635340 18.330099
14.319438 4.692858 1.218554
17.073453 -3.036649 15.593673
15.511122 78.543791 -8.769928
26.610461 -58.033569 25.063702
-33.597993 76.146340 11.196529
-39.012219 11.992940 2.602751
30.203144 67.257930 0.186857
-17.335478 35.392376 14.644977
31.431186 -55.401194 3.549894
-15.667487 77.397077 13.176903
8.960903 59.727650 -16.750949
5.911970 77.249137 34.128733
24.410163 -52.769017 8.945379
-16.814752 -53.543089 26.771313
-5.205677 75.194191 31.519971
-54.618249 69.432957 -50.724525
49.840893 76.172639 -6.778708
-60.160881 54.197626 -44.890428
19.484863 63.518788 -7.316749
20.847054 73.934268 16.506912
38.978111 68.753604 -15.244645
-62.224312 59.315059 -51.871499
22.400740 56.698907 27.155163
11.810600 -4.125764 15.349773
26.169267 9.858209 16.688802
18.406744 -15.757144 7.255560
-26.116509 59.069688 24.230687
32.390090 2.431027 19.150861
0.268765 56.742273 -24.720898
20.357649 39.168210 15.555453
3.530608 39.315793 32.068162
-8.519236 74.702241 -11.951719
-14.648949 76.242624 -14.386086
-13.660800 86.908617 -3.695498
-37.335776 -34.153368 22.176860
-5.514066 19.053371 -10.027325
-38.254242 -49.147286 22.263749
-4.476582 20.767882 -6.108072
-40.960870 -56.836525 7.087734
12.901940 76.231771 -13.895720
-41.688796 62.512100 2.170315
30.962514 -33.215919 18.870870
23.133342 -38.031672 -2.590796
13.255086 76.377178 10.931736
17.359435 -13.365049 22.471780
-33.946184 59.289061 -22.319731
-50.874534 52.453176 -0.592098
-2.480156 19.602494 -6.458102
-53.928982 64.475639 -49.788920
-42.152320 -30.339815 8.773965
-60.250230 69.476832 -26.275484
28.219123 55.199661 20.242158
-22.361910 37.964831 6.375408
11.151052 82.660645 -3.830449
-42.282194 1.214905 -9.679881
-13.751364 86.065483 -28.086145
27.747934 2.177780 -2.947388
10.806248 83.639270 4.780647
15.031844 -55.035835 26.186038
-60.655022 67.424958 -7.321493
6.174315 80.421902 -17.635717
-8.125302 53.149537 -20.176788
14.310615 52.118676 34.602510
17.592020 -20.481235 24.780252
-14.500758 63.921534 -21.685524
16.924664 -44.998155 16.348763
-1.445016 71.450280 -39.828561
-30.172022 51.536909 11.731449
40.581677 54.984198 -15.671772
-6.266770 -4.109977 43.890991
3.723414 50.586146 -11.717190
34.728509 -47.986777 9.990994
-0.923724 -7.046135 55.687884
40.872412 61.653068 -15.424420
36.255781 44.622606 -6.471801
-50.074520 80.230273 -26.240558
33.802756 51.877559 -8.861579
-4.180289 52.304691 -15.009457
23.591223 -47.766432 1.390759
-6.210720 87.568601 -8.546746
25.882227 -26.196316 20.758884
-29.122734 -38.903187 15.966377
-67.840201 63.343445 -48.179759
-27.964872 61.150257 31.824675
9.829340 84.639456 2.259222
-4.415512 86.220290 -8.433384
-4.479145 63.257915 30.250317
50.442877 79.259481 -24.829916
21.665712 56.520068 14.687039
-18.871977 85.458843 -25.951300
-33.847640 -6.972022 12.057327
-29.454856 58.315796 -9.961811
-11.253375 27.888765 7.680995
27.874573 57.987315 -5.999233
-3.599004 29.809586 30.437292
24.153921 -14.140723 18.883873
8.522900 61.522508 -12.395897
27.183422 -0.652424 9.005689
7.727588 78.645906 21.303150
-8.006770 1.143521 39.563634
-17.149298 74.226380 18.304788
-46.612582 86.114089 -37.395539
-7.744810 54.379124 -22.460625
29.332445 -45.486214 3.655353
15.167751 -32.836428 5.222463
-8.158998 45.055961 -14.228837
-16.352613 48.462337 31.109152
-44.455915 2.862818 -2.484910
-14.459732 17.528714 30.019158
21.520539 83.514293 -18.484540
3.061859 94.498846 13.017805
-6.895480 93.293810 -15.795685
-27.967324 72.625126 13.392915
-16.699823 81.098475 -4.511937
-35.856546 11.963797 11.572881
-30.220003 -23.779259 20.015523
8.063748 -3.718213 41.461734
-1.136158 10.593940 -4.035993
-32.631342 64.969400 -10.068935
45.776055 52.679657 -1.862103
-51.144909 85.872267 -44.583113
-42.419212 -51.399769 0.369942
-44.859754 -6.886678 8.226263
25.901349 37.330941 -8.038340
-33.660378 -40.182232 32.697991
-13.829643 19.966878 28.309699
40.587660 65.945466 -8.772048
13.864175 50.586929 -10.860136
-22.758224 44.705641 -10.320763
6.605110 55.272335 39.290155
21.551793 -4.889357 -3.644058
-14.793761 71.073738 36.208697
-1.077428 71.874896 -25.810327
44.670857 50.122690 0.333885
-51.871360 55.349112 -34.415636
6.731153 48.942190 -26.513184
-41.085009 51.770614 -1.361784
-40.932881 64.170482 8.389447
0.793292 -5.489802 37.313404
17.621460 28.460010 23.006569
66.647893 64.300318 -8.481116
-11.478106 -8.397595 28.332975
-52.433532 78.517402 -42.545709
-27.048824 56.003749 17.603202
20.871286 71.891524 5.913997
39.830144 55.513771 6.355167
3.339685 87.828794 1.670078
-17.838401 20.575115 18.967664
-34.402732 71.017233 -2.438174
-25.896573 -51.452483 15.448065
15.309057 -6.069899 12.030314
-42.167854 -22.400253 5.655265
-28.786006 2.221156 -3.631034
-57.957869 78.634639 -34.073754
26.261167 -47.257135 2.054324
-23.698404 -54.282091 21.049743
8.452064 69.404965 -25.717485
6.888005 29.348902 -9.023144
-4.625539 62.380191 36.860227
-40.646623 71.592569 -21.339036
-37.833334 -46.032223 13.015461
3.397495 31.777929 29.866471
48.623557 54.217991 6.016303
27.424256 43.262253 9.810730
32.145404 -8.062559 18.204414
-19.134046 6.073280 25.729138
20.013548 55.045002 -13.651238
-8.704977 24.468073 33.400370
-20.201687 18.487944 27.094121
22.312783 -26.824184 7.359874
-60.568209 -49.798099 8.226299
-40.801595 -51.199362 -3.271700
-16.644078 76.315732 7.511789
-41.647996 -45.167789 -4.597050
17.712388 -31.585499 21.267161
-28.066133 68.389740 3.667361
-22.665697 19.558866 16.008159
-22.446391 -24.051089 -2.219419
22.233260 82.473204 18.565092
-29.008418 12.798426 23.702377
8.088393 62.816684 -22.478259
-42.965639 -9.698233 5.475807
-48.560457 62.169165 -37.719827
17.787871 70.361186 37.229839
39.452074 -4.877007 3.525210
-10.015984 -2.909975 13.350964
-65.230368 66.410097 -11.122326
20.389844 42.437498 26.221298
47.653538 80.120214 -33.390847
26.019981 -46.480588 31.664584
-23.358161 59.364425 24.473351
-45.301495 65.570555 -10.522499
-14.524734 75.406633 -25.960812
34.928445 -0.524464 0.377803
12.324540 57.567763 -21.776913
-6.329090 54.747997 -29.592910
27.534870 -52.951949 5.435385
17.750761 37.294569 -9.510313
-10.383912 57.970737 32.726749
-12.631404 65.642806 31.386109
6.893783 -20.898043 12.009617
6.294962 75.149351 30.489587
22.906423 72.658194 -14.808492
-49.293583 46.654027 -21.955286
-47.047960 73.859249 -24.814173
-25.608426 3.076570 2.815502
16.835061 -18.549873 1.790581
19.138819 89.502763 -37.601338
-26.530752 43.912186 1.136433
-17.944246 47.022678 -12.017364
-41.911749 -48.382313 8.450574
-15.318058 62.909949 -11.054683
-21.244303 49.944778 -9.924692
-63.436316 64.625291 -33.980100
29.803625 8.706683 1.726104
-48.912302 -42.490095 6.286881
5.405917 84.305887 -22.148058
16.380801 20.430038 29.312170
19.845228 47.449746 -11.948736
-48.596276 -49.630346 -3.039218
15.171202 80.378880 17.370219
-2.289189 55.431307 -32.837780
-27.112406 -11.043254 7.889013
-14.418844 89.571276 20.523209
18.332854 78.453759 -7.641757
-13.287377 67.916333 -6.530275
23.656100 -50.525371 27.089780
17.667784 -44.194521 5.615670
-3.426062 5.394205 8.000916
24.484470 -19.877981 22.607312
-22.701559 -41.731208 1.166305
44.807961 47.338041 -4.283634
-20.488219 57.216900 27.506919
-22.926004 56.381645 31.128669
14.661397 64.267828 -28.866858
9.570707 57.734233 -13.422442
-25.950385 59.523366 11.223728
16.700359 49.921670 20.614970
60.406067 77.625096 -17.356448
-27.675959 71.509482 -2.814130
-27.254797 18.210752 8.244322
48.576841 73.562386 -8.746508
-0.659208 54.359475 -19.198530
-40.743393 58.348436 4.559415
-47.182221 73.509411 -43.372115
12.266194 -30.804840 28.038093
21.457111 40.429832 28.442906
-0.644123 19.420848 28.565049
46.308225 67.605400 -10.194429
40.256476 53.814918 1.954425
6.546094 -4.787960 28.548425
-23.035126 43.748743 33.704637
-33.213538 46.280432 -12.952977
-39.690805 -39.145128 2.786148
-33.171608 -18.614085 14.294019
45.126550 57.784681 0.768645
5.628301 63.847667 -11.388577
-0.007855 75.486873 33.002484
20.044616 95.674283 -20.051792
-3.638641 78.483865 -30.920545
-16.801500 27.941960 -0.530242
10.030532 13.029219 -6.855836
24.207384 -16.591232 19.885234
41.748037 63.170818 -14.722793
-22.741838 18.506159 0.932048
-42.120641 -53.748961 0.002722
23.268318 69.971451 14.992758
-4.919358 88.386412 -0.541527
-23.569985 62.333747 -11.407708
-30.689993 -1.824529 -2.591101
60.895560 75.816339 -8.989785
-23.138933 60.154807 20.506796
-43.513235 -4.490531 18.138008
36.475404 57.803952 12.921833
30.036125 59.543351 -2.420373
-2.305543 72.869598 41.207503
-54.121527 53.207842 -15.028057
-52.310476 77.366555 -37.068061
-11.777551 80.905613 -19.480773
-35.126082 4.485156 7.999335
18.365911 23.405916 15.689877
-4.393581 -11.048377 44.856008
-4.861525 52.856583 -15.462706
-57.127094 66.468009 -36.163920
21.294581 20.596562 12.106210
-7.242896 6.352299 11.302265
-11.766503 30.711972 -4.558359
14.166061 35.613188 24.003488
28.195106 61.490208 28.619253
-23.237128 51.544455 11.216268
38.689891 59.388464 -4.323854
-6.759330 67.114840 -42.120619
-65.894905 60.125932 -39.787299
-13.369056 85.899999 -20.194345
-46.385813 47.427614 -18.905383
-16.469490 27.257773 0.644435
19.987455 70.244620 12.005937
-54.346989 72.309292 -25.476869
-5.467694 11.163147 38.510422
23.942189 22.342326 7.857923
18.515329 -51.656733 1.847735
-26.335621 68.994081 -8.438181
46.241623 47.465824 -13.327172
29.708253 -3.567206 1.471459
-16.651625 28.636983 10.862947
-6.996628 19.889641 -3.047130
-37.655504 -34.261730 10.319786
20.599617 -3.069931 19.779494
-29.585788 48.727524 -1.130076
-26.505410 -9.106589 3.278247
-42.289898 57.633778 -20.798775
51.966104 51.683819 -15.779847
-32.230302 -38.065747 7.875293
-52.444617 46.774490 -27.289150
0.040930 60.117993 37.274931
17.816624 -14.584737 15.498217
11.792188 77.746352 23.174549
19.635552 74.260842 25.402790
-33.331178 -5.312739 -6.320529
44.801986 59.292391 -10.503602
15.942947 -16.407326 18.207163
27.123860 61.968369 9.956475
-5.306895 3.235791 48.808961
20.192853 42.527261 19.195067
12.181183 82.766196 -17.893632
-44.307150 -47.880889 -8.167621
27.676570 43.595936 -5.164620
-49.319189 -47.725646 -8.896152
21.623013 -37.174474 30.807634
-51.371002 74.009570 -49.728728
-3.700588 50.737728 -25.409265
-55.078749 70.414165 -45.131999
27.262989 58.544964 16.893965
-6.030131 31.011796 35.287697
34.273208 -22.567834 17.264840
54.777240 66.990483 -5.868867
-23.144352 42.497296 1.919306
18.874796 -13.541616 17.352121
-21.645639 39.533881 21.371082
-30.618170 54.554588 10.032387
24.880631 68.167961 -2.065166
-25.015458 65.069904 31.432798
-2.560873 49.227743 31.506139
14.709525 -0.696322 10.157095
-30.258440 -43.970557 10.259052
17.742865 75.703387 14.207923
-23.432628 47.324245 17.514710
18.613186 22.526607 4.637900
61.674043 65.634415 -6.438551
-28.622417 95.713689 -31.712584
-21.833563 32.404876 11.342221
-33.211479 57.707357 17.230140
3.764050 25.631798 25.598229
-21.706712 -25.531392 12.317637
-13.928933 81.270697 22.026455
-47.348870 60.709452 -12.476935
15.227716 34.950908 25.944083
-20.348640 45.969413 21.106995
-37.527447 6.448710 3.871729
59.901837 66.845085 -31.071311
-55.157279 67.466689 -16.848624
-29.899982 54.146818 10.494465
24.826489 6.002282 24.764068
13.440451 27.996049 30.613107
9.868674 5.970037 27.867896
36.920805 -28.513415 21.664151
4.294623 34.552017 36.009713
-39.187771 47.335167 0.134811
-25.171405 -6.717190 19.785137
-42.371385 -54.976859 19.076752
3.106575 11.478560 30.722818
15.583908 22.291542 7.448656
-58.184707 80.749245 -41.938385
9.585143 11.702620 19.527825
37.772852 47.773131 -6.149726
24.197035 68.987527 5.550042
-58.576452 73.829216 -30.585604
20.726609 6.146542 26.665051
7.824306 22.005362 34.670649
24.617542 48.529812 7.254312
17.326014 14.106672 25.487847
-10.252603 92.017641 -24.459793
11.467943 79.617444 10.317592
14.778549 61.069704 33.311121
-34.467468 71.661361 -6.490263
9.088665 75.426234 -7.081035
27.268859 5.950433 1.130875
63.579170 72.914714 -35.936583
-58.427419 77.995253 -47.051933
13.182938 41.364020 -8.344177
-59.930360 67.167641 -38.678853
5.888257 87.138653 -3.065270
20.221204 -58.144130 12.568847
18.778237 33.756206 8.964795
22.944574 63.868563 -21.228311
34.211669 -51.330814 23.889423
-3.320941 -11.915257 58.814647
-55.629723 72.805691 -55.795983
-63.286655 63.390029 -36.427261
-45.812426 -19.910293 0.591824
-40.574150 -0.035894 7.770271
52.165540 55.141826 -6.367376
-23.443104 43.714111 19.542013
-25.713468 34.778507 -4.520224
14.371103 79.080784 3.496983
22.417151 62.486897 -4.455192
28.544285 -13.708874 9.108352
49.253725 50.415990 -11.261325
22.578317 62.966981 -5.564662
38.098757 -57.123308 13.411855
-45.062752 -48.488876 1.556405
4.415443 9.547042 0.771547
12.030696 92.537096 -23.145671
-18.876146 74.780616 5.461050
1.055233 34.175714 -16.570891
-47.911952 -51.519922 4.549842
-7.012644 56.875751 38.726317
-10.939000 82.761583 6.428010
22.272274 27.717522 4.037166
-25.361996 -15.063468 14.577019
34.894296 59.108887 4.767471
37.468074 -19.093796 9.773989
41.349043 42.565781 2.161462
-26.213085 -29.164337 -2.493339
32.904090 55.422376 -14.442810
-10.662528 86.089947 -20.798554
14.304345 -39.388021 21.399846
-10.024043 43.687768 33.834499
-54.956421 63.052496 -47.507679
-9.122988 21.744237 -0.969142
-19.019324 19.561145 14.023070
24.267393 -51.039847 4.302106
15.097737 14.355637 23.870251
-30.335793 -46.601394 25.760956
-38.299326 48.749959 1.997550
-38.511695 15.507628 11.547923
-31.031788 -30.044273 17.175609
62.715103 68.515477 -13.513357
-60.144458 74.598289 -47.065038
35.506838 67.228602 -2.797505
50.224331 74.860708 -31.801633
-38.426699 -39.114980 15.877609
-57.527801 69.334241 -25.766404
20.541451 68.574099 30.721519
-56.614963 80.665651 -22.031281
36.976635 -44.924912 9.439521
-54.056435 78.594194 -22.379445
-33.245701 48.505661 -4.157699
37.784552 40.899942 6.405098
10.936660 23.603081 -0.590332
27.304552 58.728345 18.396059
-61.071224 76.796044 -57.851840
5.184940 22.610411 0.790435
-23.815603 85.096053 19.993662
18.908495 85.809946 7.775736
-56.915404 55.660763 -29.627223
-25.365045 -31.098205 15.637552
-5.309974 72.452826 -34.488840
27.956872 78.774464 4.081913
34.110039 -32.963732 14.860164
-5.979976 31.701804 -7.785304
17.504273 -53.466146 20.933644
-15.769074 28.266495 -2.800489
3.183915 8.276423 22.562698
26.381630 58.522194 -7.068150
-21.534667 85.423925 -28.225556
-63.950427 73.700022 -36.552254
36.594034 57.036186 8.376958
15.268374 -8.872373 24.124511
-21.916694 49.412253 5.767658
-8.118735 33.282751 31.057622
-18.074533 29.746589 21.380465
21.467087 -23.504890 18.798748
-20.970109 71.996599 -20.481335
20.558051 25.392671 24.953368
-37.021201 -52.255286 0.140803
27.169117 -1.681976 20.441303
3.356111 88.095824 23.758363
36.187092 46.605586 -3.879419
36.591574 58.727821 -2.542091
39.753322 66.798646 -26.242229
-21.505286 73.311908 20.088610
-33.178370 61.703191 -13.350873
50.069223 59.997374 0.717795
3.196578 6.905244 -1.690429
-37.831658 68.936170 -18.122541
-29.146328 -52.018436 25.751574
-44.863762 -28.183712 -1.369734
18.624733 23.855022 11.310082
18.202632 -4.931549 12.435120
20.605234 37.963155 15.937608
30.772105 -1.853726 19.037126
56.207587 73.612479 -15.630144
-9.637458 3.046025 4.627837
60.131418 77.245472 -51.897932
-37.385530 66.451440 -19.436395
-25.729336 -8.357050 17.855094
12.030928 12.313099 4.304140
11.496304 36.427394 29.025191
-17.342379 71.843143 -0.757955
16.495173 46.330695 -2.887570
15.397729 -14.815903 4.761180
5.082286 82.327974 -4.847133
46.505466 48.049957 -10.124244
-30.196079 51.422527 19.794300
52.774399 72.708027 -10.677997
-34.219303 -19.730600 7.965572
-3.053159 38.672929 33.978967
-12.399486 10.860358 24.521683
39.789499 49.213350 8.235160
-59.470318 73.652776 -47.964114
-21.437270 42.863848 -0.625886
17.885887 68.968637 -5.307259
-39.924326 55.103964 -5.117553
-44.847313 -21.721790 0.498978
31.039755 48.963565 21.393990
19.234905 74.595671 -17.314549
33.014374 -50.755084 0.869588
-7.188073 81.874167 -28.534454
33.903745 -24.925703 14.880972
47.514391 68.319561 -3.146136
-18.519779 83.927203 -18.167591
-5.930669 31.485695 -7.247468
58.111674 64.995045 -4.941692
22.639969 -47.404305 16.896798
13.936205 49.540978 35.760999
-29.803415 8.874154 -5.104470
20.457827 -48.226683 23.536872
3.404268 2.243907 33.680170
4.425079 -5.911662 35.503382
5.803844 83.089071 -20.610595
-12.871449 10.833198 -4.009834
-39.653513 -49.137635 6.115213
-21.860610 14.332822 22.797229
-5.426458 59.998801 -30.438998
-38.189545 9.971192 -1.666338
-59.139394 72.681850 -38.939110
-11.006340 -8.778502 43.191566
21.411550 -43.342510 32.393654
-37.259908 0.691378 17.086778
3.545629 0.880288 9.808804
5.259061 89.983555 0.303245
-15.584543 71.891453 -17.434934
-0.232223 37.921736 -3.513115
-18.221130 40.773331 -9.081841
-34.285974 -23.956067 -0.702031
-52.512078 58.911360 -20.970983
-2.383358 58.914897 -42.036067
14.498176 84.974444 -24.775826
-23.329340 48.255757 25.739873
18.419432 26.898035 18.083300
14.304863 17.693640 -4.917404
31.999526 61.532866 -1.267104
-38.610286 40.058543 -2.492391
29.341631 72.888233 -0.882560
-25.313722 -20.875157 10.038246
14.327933 -29.078911 26.476635
3.055206 -2.429666 47.775764
-42.958427 -60.573743 -1.728694
30.191780 -12.851986 10.346930
14.038941 -29.699473 13.124767
19.737792 -34.677571 9.051089
32.083860 56.764054 -5.528351
-48.508903 57.637906 -1.400234
7.640476 18.016033 28.051304
5.051408 78.450890 -20.144193
-22.259087 22.976688 22.056612
-59.270275 61.737167 -15.126412
-11.799849 92.709875 -6.606708
-2.096525 47.298296 -12.894363
-48.487234 76.913765 -53.641473
-35.959741 -46.367193 0.795278
18.245041 -25.722575 29.205770
-18.648581 17.730244 24.337835
19.077079 95.394468 -17.144896
-3.604962 5.590448 19.948755
-9.065192 29.847177 -11.151763
24.709384 -9.381328 19.431967
-43.401720 -24.612541 16.131369
-0.311892 32.408000 28.793263
-13.803875 61.844309 -27.593915
-32.578723 43.277283 17.076840
13.393783 69.279481 1.537014
4.775509 6.410464 29.637100
26.835025 -57.248634 9.184339
4.720320 64.639361 -15.411233
