-0.016521 0.245913 -0.073962 
-0.015643 -0.022239 0.143016 
0.001402 0.100396 0.100116 
-0.251195 -0.320668 -0.012584 
-0.174429 -0.085408 0.023351 
0.071773 0.322855 -0.092639 
0.203937 0.367098 0.013155 
-0.179928 -0.264283 0.165391 
-0.095689 0.027785 -0.255461 
-0.237011 -0.063647 -0.008203 
-0.133698 -0.034582 -0.263246 
-0.205069 -0.178238 0.134500 
0.148281 0.334229 0.035800 
-0.032051 0.131268 -0.224521 
0.058216 -0.070749 0.277668 
0.240416 0.435614 -0.020635 
0.119787 0.313703 -0.119340 
-0.279873 -0.323505 -0.011203 
-0.221771 -0.068646 -0.015899 
0.019306 0.172207 -0.009367 
0.126874 0.184539 0.133552 
0.088954 0.239096 -0.016343 
-0.164559 -0.094990 0.083683 
0.127265 0.344927 -0.055371 
0.163772 0.315756 0.038352 
0.086270 0.327965 -0.089371 
-0.106277 -0.018739 0.058256 
-0.273856 -0.204533 -0.006090 
0.073897 -0.207950 0.294229 
0.083298 0.196568 -0.163242 
-0.121563 0.039582 -0.031609 
-0.131856 0.063633 -0.045798 
-0.055807 0.101761 0.057920 
0.236723 0.431687 -0.100626 
0.175222 0.307315 -0.030414 
-0.155776 -0.408078 0.135667 
-0.044935 0.129470 -0.038432 
-0.237077 -0.330032 0.008057 
0.159300 0.478187 -0.103762 
-0.199960 -0.373370 0.002469 
-0.038979 0.077663 -0.267018 
0.058914 0.020772 0.245650 
0.031311 0.194518 -0.049385 
0.160373 0.477183 -0.140013 
-0.175140 -0.191501 0.139964 
-0.071331 0.186534 -0.075347 
-0.063995 0.058684 -0.206081 
-0.192895 -0.285548 0.115071 
0.209733 0.413119 0.041763 
0.164759 0.276036 0.060301 
-0.089005 0.055963 -0.250131 
-0.138401 0.001873 0.080149 
-0.082674 0.053987 0.109968 
0.094353 0.365797 -0.057502 
0.236066 0.439436 0.038691 
-0.223969 -0.201099 0.123638 
0.024081 0.212923 0.059757 
-0.191659 -0.216461 0.132413 
0.107610 0.409038 -0.129898 
0.064538 0.120031 0.185320 
0.079107 0.004978 0.194743 
0.116229 0.436312 -0.086455 
0.045085 0.092525 -0.225906 
0.199690 0.339372 0.026062 
0.174697 0.374216 -0.122742 
-0.167701 -0.008260 -0.053486 
-0.113778 0.064856 -0.004750 
0.019561 0.093668 -0.216369 
0.017579 0.258721 0.023293 
0.109285 0.353386 -0.054498 
-0.186240 -0.170272 0.106266 
0.126223 0.290382 0.030266 
0.001698 0.209672 0.043350 
0.129311 0.329001 -0.152365 
0.119044 0.372644 -0.155419 
-0.002922 0.232726 -0.099536 
0.138155 0.316115 0.061388 
0.117443 0.176821 0.091886 
0.106095 0.217092 0.107136 
0.061048 0.053152 0.236805 
0.061899 0.278336 0.044052 
0.189865 0.430477 -0.083062 
0.032952 0.158976 -0.142217 
0.005130 0.158168 -0.042936 
0.081620 -0.242747 0.304128 
0.091190 0.190615 0.032002 
0.088813 0.380844 -0.132860 
0.180286 0.261610 0.091663 
0.174644 0.403489 0.052552 
-0.160590 -0.038469 0.010794 
0.184482 0.395437 -0.010664 
-0.028469 0.046862 -0.215873 
-0.022670 0.148764 -0.210700 
-0.023366 0.089833 -0.244778 
-0.071168 -0.026127 0.076125 
-0.202344 -0.355994 0.149012 
0.213170 0.240390 0.051311 
0.122781 0.344715 -0.069438 
0.080896 0.225238 -0.109202 
0.188696 0.393248 -0.103097 
0.066345 0.208273 0.093258 
-0.046980 0.221515 -0.051981 
-0.039307 0.111774 0.049401 
0.160228 0.363835 -0.116080 
-0.105560 -0.043620 0.063238 
0.087611 0.237548 -0.039668 
0.003115 0.234359 -0.034854 
0.001276 0.180866 -0.116842 
0.054338 0.167924 -0.230265 
0.100309 0.279459 -0.094927 
-0.170497 -0.023245 -0.053532 
-0.186882 -0.005584 0.021584 
0.047475 0.190310 0.030163 
-0.179885 -0.310187 0.145571 
-0.244743 -0.243113 0.017560 
-0.066880 -0.301897 0.254189 
0.024971 0.183890 -0.011639 
-0.080219 0.152201 -0.018882 
-0.068824 -0.128733 0.233895 
-0.183158 -0.146888 -0.265494 
0.155094 0.411847 -0.031399 
0.017837 0.190896 -0.173193 
0.064417 -0.090542 0.249832 
0.180506 0.382950 -0.144437 
0.107712 0.416456 -0.101874 
0.177513 0.269309 0.041551 
0.199536 0.344469 -0.059262 
0.093883 0.188982 -0.129921 
-0.017455 0.175579 -0.072852 
0.067214 0.266069 0.057709 
-0.111113 -0.040507 -0.285228 
-0.170680 -0.393580 0.160970 
0.182971 0.257579 0.036912 
-0.241299 -0.241222 0.007671 
-0.197758 -0.127373 -0.026620 
-0.050819 0.085433 0.094385 
-0.205594 -0.167580 0.107395 
0.190110 0.428070 0.022710 
0.185467 0.337375 -0.029129 
0.217102 0.283017 0.059890 
0.164398 0.319744 -0.030634 
-0.011725 0.003146 -0.248322 
0.045286 0.269998 0.019775 
-0.083503 0.050936 0.105794 
0.098209 0.391882 -0.132098 
0.170200 0.368251 0.021058 
-0.141529 -0.041086 0.131142 
0.047900 0.271037 -0.074366 
-0.048977 -0.052747 0.204365 
-0.035554 -0.031504 0.182270 
-0.246301 -0.166295 -0.008512 
0.008112 0.209347 0.064741 
-0.190879 -0.405660 0.139984 
-0.059394 0.216348 -0.083820 
0.095340 0.305436 0.018083 
-0.018107 0.001207 0.200074 
0.182066 0.394233 0.057747 
0.096418 0.245105 -0.020642 
0.167727 0.479565 -0.119192 
0.070357 0.188734 -0.229154 
0.161746 0.345527 0.023219 
0.093568 -0.205565 0.292180 
-0.026353 0.146612 0.051816 
0.074585 0.157825 0.104996 
-0.272510 -0.319783 -0.013819 
0.016040 0.129081 -0.248301 
0.201562 0.303278 0.020587 
0.076903 0.084936 0.205033 
-0.246185 -0.145443 0.006740 
-0.038302 -0.012058 0.124983 
0.077689 0.197299 0.098647 
0.118162 0.187190 0.076910 
0.182889 0.398750 -0.109480 
0.134608 0.277284 -0.033421 
-0.067316 -0.058975 0.155301 
-0.056074 -0.323177 0.225586 
0.075737 0.336807 -0.119437 
0.228820 0.444036 -0.006160 
-0.016196 0.193898 -0.031408 
-0.042914 0.237618 -0.050582 
0.044897 0.268110 0.026954 
-0.052808 0.144330 -0.026142 
0.056614 -0.178997 0.273760 
0.043921 -0.122028 0.293068 
-0.156563 -0.442250 0.146360 
0.103394 0.309930 -0.098136 
0.105483 0.353388 -0.063104 
-0.186432 -0.082729 0.052367 
-0.088418 -0.029793 0.122716 
0.025765 0.173937 -0.169986 
0.013101 0.210030 0.022472 
-0.248650 -0.273416 0.043808 
0.004339 -0.033185 0.149167 
-0.234872 -0.143282 0.035414 
-0.131820 -0.013637 -0.026267 
-0.042722 -0.022448 0.135252 
-0.067137 -0.033898 -0.250348 
0.173658 0.475541 -0.127697 
0.054421 -0.186901 0.277277 
0.083091 0.230900 -0.077539 
0.025873 0.048049 0.193745 
-0.033357 0.067604 -0.276602 
-0.069116 0.078112 -0.242113 
0.153166 0.352663 -0.151894 
-0.011042 0.139202 -0.230779 
-0.155147 -0.103648 -0.262267 
0.123305 0.434103 -0.088279 
0.078028 0.287672 0.017617 
0.178569 0.411384 -0.109853 
0.093710 0.279066 0.075735 
-0.153542 -0.142062 0.125675 
0.068170 0.063507 0.169080 
0.004141 0.231015 -0.096032 
-0.183461 0.000992 0.019223 
0.132403 0.328282 -0.086257 
0.122087 0.173118 0.167623 
0.190882 0.350409 -0.027419 
0.088153 0.119425 0.164476 
-0.188383 -0.169667 -0.300740 
0.022323 0.192934 0.039341 
-0.146344 -0.040181 0.006386 
0.217204 0.389157 0.000884 
0.203701 0.416082 -0.010017 
0.011489 0.190819 0.028797 
-0.234719 -0.219216 0.136678 
-0.064938 0.051553 -0.304372 
0.109171 0.409827 -0.124013 
0.047057 0.238077 -0.087265 
0.202474 0.341983 0.062520 
-0.240784 -0.242589 0.019098 
0.037645 -0.135725 0.282068 
-0.070760 -0.286943 0.267611 
-0.079875 -0.026232 -0.288085 
0.099214 0.226897 0.028654 
0.139627 0.352979 -0.051572 
0.127593 0.423223 -0.136294 
0.115773 0.192285 0.126061 
0.138551 0.411660 -0.154474 
-0.156499 -0.101868 0.004526 
0.136889 0.322672 0.038298 
0.148894 0.335698 -0.153359 
-0.099421 -0.059386 -0.273616 
0.072653 -0.036107 0.244917 
-0.078931 -0.099388 0.186804 
0.125628 0.273810 0.057264 
0.191735 0.476536 -0.073763 
-0.072028 0.196917 -0.036509 
0.107364 0.403457 -0.081712 
-0.041852 0.105958 -0.220745 
0.180642 0.370985 -0.014817 
-0.167855 0.033764 0.000323 
-0.040455 -0.393302 0.219012 
0.125479 0.262661 0.067993 
-0.059443 -0.251891 0.254756 
0.204267 0.414440 -0.051036 
-0.183132 -0.328178 0.132766 
-0.023161 0.058306 -0.200525 
0.174905 0.368510 -0.143765 
0.041121 0.204987 -0.047759 
0.083019 -0.046012 0.224014 
-0.015643 0.211908 -0.028193 
-0.114391 0.016535 0.102674 
0.012481 0.156193 0.000751 
-0.082534 -0.221823 0.215879 
-0.057166 0.145535 0.024589 
0.020474 0.245797 -0.032424 
-0.176265 -0.372138 0.154537 
0.035814 0.124570 0.080183 
-0.078754 0.010154 -0.268511 
-0.192754 -0.209821 0.098940 
0.062721 0.100791 0.205234 
-0.068367 0.013974 -0.283240 
-0.013210 0.024151 0.175553 
0.260453 0.371834 0.048667 
0.076538 0.244208 -0.045979 
-0.109573 0.142385 -0.042371 
0.188028 0.280012 0.036166 
-0.027293 0.114865 0.032811 
-0.083125 0.038027 0.062126 
-0.207745 -0.034905 0.003910 
-0.160504 -0.154198 0.130695 
0.022801 0.233740 0.023829 
0.235971 0.410181 0.016009 
-0.218249 -0.121821 -0.012349 
0.159503 0.322282 -0.064209 
-0.079191 -0.147930 0.193710 
-0.112218 -0.227911 0.235469 
0.009050 0.070505 -0.244524 
-0.053100 0.152388 -0.053128 
-0.174600 -0.346477 0.125729 
0.045197 0.192888 0.100915 
0.196659 0.347521 0.025520 
0.035360 0.200860 0.054355 
0.136926 0.364172 -0.149513 
-0.166640 -0.455834 0.128806 
0.022029 0.205595 0.060869 
-0.167870 -0.216381 0.146494 
0.097437 0.392986 -0.071819 
0.198815 0.440177 0.038758 
-0.161559 -0.154417 0.074337 
-0.072478 0.151985 0.041583 
0.182218 0.384181 -0.041916 
-0.114203 -0.109612 -0.264726 
0.088355 0.266363 -0.070427 
-0.206356 -0.065405 0.004736 
-0.106148 -0.034121 0.062072 
0.045559 0.236273 0.020285 
-0.073737 0.182395 -0.028950 
-0.087701 0.108556 -0.051905 
-0.211491 -0.377071 -0.008992 
0.174223 0.369590 0.052439 
0.084837 0.123727 0.184462 
0.096715 -0.113203 0.309877 
-0.085059 0.003094 -0.224024 
0.174965 0.413641 0.041793 
0.140553 0.276353 -0.043932 
0.020974 -0.032517 0.200858 
-0.148666 -0.142967 -0.289445 
0.214049 0.374736 -0.041814 
0.163797 0.432749 -0.059800 
0.209616 0.423477 -0.017137 
0.054101 0.173932 0.070677 
-0.062840 -0.393958 0.224238 
0.116518 0.193568 0.041989 
-0.227576 -0.364102 0.006371 
0.105870 0.160181 0.111260 
0.046759 0.021389 0.249552 
0.033158 -0.074806 0.246242 
-0.187998 -0.039682 -0.058189 
0.068347 0.314560 -0.056168 
0.056082 0.282531 0.019608 
-0.055973 -0.318137 0.232195 
0.088229 0.063918 0.191758 
-0.098564 -0.039433 0.074218 
0.121101 0.294752 0.032589 
-0.157050 -0.066888 0.010538 
0.058554 0.141797 -0.180388 
0.073982 -0.084797 0.252924 
-0.047757 -0.095568 0.170825 
0.068584 0.195737 -0.089463 
0.096393 0.375716 -0.135524 
0.097998 0.326323 -0.137593 
0.047713 0.281379 -0.068181 
0.061487 -0.250461 0.323414 
0.101919 0.410610 -0.115956 
0.178372 0.412897 -0.000327 
0.230423 0.423301 -0.023520 
0.039594 -0.052468 0.256164 
-0.071461 0.002346 -0.242660 
0.043113 0.178240 -0.114376 
0.159989 0.382468 -0.119664 
0.044666 0.168076 -0.145240 
-0.148413 0.044744 -0.009921 
-0.170176 0.036462 -0.012663 
0.044048 -0.072546 0.267305 
-0.067381 0.111056 0.058792 
0.122714 0.326585 0.034245 
0.122879 0.283497 -0.021052 
0.173997 0.283719 -0.047133 
0.057648 0.195347 -0.152230 
-0.139371 -0.074818 -0.247285 
0.156186 0.468939 -0.098508 
0.209966 0.442683 0.026200 
-0.205026 -0.262630 0.103171 
-0.137380 0.086052 -0.043201 
-0.239284 -0.294101 -0.007949 
0.149324 0.357407 -0.116877 
0.164110 0.407548 -0.012465 
-0.046911 -0.123276 0.175116 
-0.077926 -0.018996 -0.250478 
-0.122550 -0.004494 0.129789 
-0.031339 0.174437 0.060963 
0.035736 0.158463 -0.162546 
0.060713 0.054717 0.178344 
0.053226 -0.062491 0.211328 
-0.172719 -0.135037 -0.266164 
-0.161878 -0.448737 0.133543 
-0.044969 0.199167 0.003009 
-0.040157 -0.009352 0.180858 
0.106343 0.338809 -0.072246 
-0.124455 -0.040132 0.069945 
-0.074873 -0.334443 0.252601 
0.048575 0.223340 0.049723 
-0.159637 0.021394 -0.043937 
-0.010079 -0.011560 0.126669 
0.189436 0.378415 0.057937 
-0.042749 0.058423 0.134682 
-0.012174 0.008170 0.144160 
-0.042503 0.017719 0.155226 
-0.097454 0.101591 0.058269 
0.057026 0.080647 0.175595 
-0.207102 -0.311002 0.144977 
-0.130290 -0.004601 -0.008199 
-0.095132 0.067893 0.109558 
0.072159 0.222265 -0.171867 
-0.164004 -0.075729 -0.017941 
0.042823 -0.147758 0.274731 
-0.050352 -0.148216 0.198634 
0.075443 -0.264910 0.303503 
-0.198601 -0.177607 0.135259 
-0.234850 -0.146375 0.026964 
0.004478 0.247638 -0.102287 
-0.008825 0.241867 -0.035363 
-0.034799 0.173009 0.010657 
0.230813 0.254981 0.035314 
-0.167890 -0.131729 -0.000527 
0.106624 0.218311 0.135468 
-0.064602 -0.281125 0.233392 
0.184657 0.459891 -0.064687 
0.191796 0.274689 0.037155 
0.126174 0.323996 -0.048469 
-0.175140 -0.270648 0.163500 
-0.192665 -0.224553 0.132924 
0.196690 0.368498 -0.042737 
0.179990 0.425149 -0.150516 
0.160363 0.401443 0.033604 
0.024465 0.171980 0.076735 
0.160519 0.278165 0.060703 
0.071788 -0.054594 0.191716 
-0.020693 0.040560 -0.272931 
-0.169524 -0.461927 0.125122 
0.052330 0.094822 0.139923 
0.080097 0.139582 0.142205 
-0.100777 0.112778 -0.005941 
0.204461 0.376771 0.012276 
-0.192129 -0.166868 0.128860 
0.099258 0.292770 -0.043071 
-0.174330 -0.274540 0.141501 
0.087189 0.194954 0.016930 
-0.022458 0.228164 0.054615 
0.079439 0.031876 0.192983 
-0.230436 -0.226892 0.026519 
-0.248011 -0.296262 0.009114 
0.076395 0.298345 -0.066260 
-0.159024 -0.416061 0.124368 
-0.042683 -0.405590 0.204583 
0.146847 0.405143 -0.020315 
-0.039197 0.184519 -0.097202 
0.072984 -0.220437 0.297588 
-0.212139 -0.109093 0.002390 
0.144024 0.201362 0.116033 
0.175038 0.353652 0.048023 
-0.200729 -0.324974 0.136412 
-0.211630 -0.137000 0.008523 
-0.028115 0.127688 0.046393 
-0.160408 -0.162466 0.092192 
-0.045297 0.236425 -0.048752 
-0.022695 0.157113 -0.045685 
-0.175557 -0.097099 -0.008338 
0.146906 0.412702 -0.020412 
0.152752 0.265972 -0.002475 
0.019844 0.093955 -0.250581 
-0.243724 -0.271398 0.011450 
0.073933 0.088081 0.177907 
0.099057 0.292817 -0.087594 
-0.239284 -0.347638 0.012799 
-0.101302 -0.191471 0.196167 
-0.045790 0.188124 -0.028878 
0.201679 0.438908 -0.132447 
0.084593 -0.295859 0.312980 
0.029569 0.107549 -0.229365 
-0.162975 -0.074924 -0.000405 
-0.158276 -0.402421 0.161581 
-0.040514 0.174119 -0.060497 
0.207894 0.451863 -0.077975 
0.138580 0.395451 -0.150394 
0.064284 0.252742 -0.156418 
0.129861 0.449611 -0.112609 
-0.192921 -0.030919 0.022673 
0.085433 0.233115 0.001827 
0.001057 0.056759 0.133029 
0.080299 0.202888 0.083924 
0.081394 0.232544 -0.012815 
0.149094 0.400783 0.008939 
-0.054479 0.058024 0.081752 
-0.026576 -0.053655 0.129633 
0.175330 0.413212 -0.017036 
0.053891 0.290161 -0.001478 
-0.053013 0.105097 -0.234195 
0.020130 0.005177 0.222233 
-0.180172 0.002269 -0.056959 
0.213821 0.422352 0.025649 
-0.231612 -0.370249 0.015468 
-0.148188 -0.070380 -0.272551 
0.063722 0.173621 -0.157611 
-0.102534 -0.063594 -0.249364 
0.141256 0.346402 0.006533 
0.060006 0.158034 -0.218878 
-0.048854 0.004612 0.135962 
0.101975 0.063321 0.225758 
-0.023934 0.150196 0.106087 
0.105495 0.298568 -0.000261 
0.032509 0.233241 -0.037847 
-0.158568 0.063372 -0.034831 
-0.215203 -0.217959 0.095043 
0.140341 0.207906 0.042379 
-0.113094 0.062072 0.005409 
0.038203 0.045791 0.190066 
0.086601 0.228001 -0.088021 
-0.201257 -0.005496 -0.015789 
-0.085959 -0.052080 -0.280144 
0.120943 0.203384 -0.129599 
-0.221221 -0.262256 0.122372 
0.163469 0.410493 0.024671 
0.109886 0.406997 -0.065269 
-0.142214 -0.052511 0.008989 
-0.051169 -0.333654 0.231126 
0.079309 0.334352 -0.083061 
-0.217514 -0.300295 0.129029 
0.086507 -0.298181 0.328770 
-0.186996 -0.082892 -0.043656 
0.003082 0.206968 -0.092982 
0.088218 0.215983 0.078112 
0.164543 0.291454 -0.025226 
0.068644 0.198523 0.077771 
-0.091476 -0.289882 0.227355 
-0.028133 0.161693 -0.002359 
0.179102 0.336239 0.053683 
0.109250 0.424668 -0.170204 
-0.154382 -0.079475 0.115505 
-0.074791 -0.050429 -0.259351 
-0.189833 -0.251537 0.144885 
0.077027 0.364187 -0.111007 
0.164270 0.349957 -0.129586 
-0.148338 -0.119770 0.115007 
0.088322 -0.058616 0.245348 
0.103054 0.279999 -0.126603 
-0.187292 -0.158116 -0.277882 
0.132819 0.275196 0.029558 
-0.199032 -0.089479 -0.040790 
-0.099666 -0.014250 0.076090 
0.105612 0.200679 0.057401 
-0.169098 -0.084766 -0.015656 
-0.144854 -0.147767 -0.273080 
0.104349 0.312381 -0.116526 
0.161379 0.349587 -0.005796 
0.178477 0.356649 -0.096222 
0.033113 0.130112 -0.168842 
0.065510 0.111138 0.162702 
0.168929 0.379514 -0.133446 
0.141452 0.200760 0.020976 
0.059876 0.229292 0.034571 
-0.224035 -0.294900 0.023578 
0.116293 0.318962 -0.067277 
0.029928 0.195744 -0.053306 
-0.198513 -0.400880 0.004653 
0.168579 0.326031 -0.119298 
-0.203653 -0.184350 -0.261530 
0.134796 0.349712 -0.067473 
-0.247561 -0.221177 0.031134 
0.017191 0.084334 0.157966 
0.048588 -0.186088 0.299763 
-0.230869 -0.399924 -0.019158 
-0.108822 -0.107873 -0.268035 
-0.184857 -0.049520 0.011330 
0.077192 -0.068143 0.246541 
0.066397 -0.021946 0.208528 
0.045642 -0.111246 0.265220 
-0.154821 -0.050248 0.004911 
-0.006166 0.188837 0.048662 
-0.243526 -0.256847 -0.013149 
-0.248955 -0.200123 -0.266553 
0.104637 0.186368 0.054796 
-0.157295 -0.036557 0.003774 
0.058926 -0.217639 0.356169 
0.025181 0.005827 0.240403 
0.088445 0.383226 -0.065751 
0.007832 0.277076 -0.031677 
0.127217 0.407056 -0.165982 
0.194847 0.406080 0.051300 
0.055897 0.205624 0.007321 
0.124621 0.280212 0.000071 
0.024496 0.224803 0.026838 
-0.140424 0.023588 0.008712 
0.064453 -0.065182 0.225143 
0.102022 0.404031 -0.144503 
0.209548 0.337274 0.047292 
-0.069794 0.019205 -0.227584 
-0.245921 -0.342852 0.006998 
-0.150888 -0.133023 -0.285858 
-0.071234 -0.348129 0.237488 
-0.076254 -0.038188 0.107417 
0.153647 0.296033 0.078218 
-0.026534 0.164156 0.062096 
0.129161 0.333432 -0.077228 
-0.048883 -0.036996 0.136122 
-0.066568 0.117841 0.078783 
0.125834 0.311442 -0.118772 
0.134833 0.298690 0.018306 
0.124085 0.446042 -0.092107 
0.127331 0.276938 -0.018019 
-0.042936 -0.028553 0.132742 
-0.062495 -0.310381 0.250623 
-0.010397 0.145866 0.104847 
-0.087938 -0.009430 -0.223314 
0.122711 0.173058 0.123198 
-0.057024 -0.041906 0.192201 
0.097304 0.103615 0.154683 
-0.073892 0.138154 -0.033727 
-0.140728 -0.010697 -0.033041 
0.128617 0.306573 0.068623 
-0.017028 0.128553 -0.235259 
-0.021448 0.122698 -0.209034 
-0.176949 -0.142010 0.137604 
-0.134786 -0.006770 -0.236398 
0.164822 0.360974 -0.044237 
0.138906 0.472642 -0.098836 
-0.072355 -0.189790 0.231415 
0.076384 0.152850 0.128042 
0.158530 0.352105 -0.139635 
0.228535 0.392580 -0.030072 
0.187003 0.413778 -0.014201 
0.106784 0.394982 -0.140215 
-0.094346 0.072192 0.103965 
-0.169964 -0.175926 0.128380 
0.078438 0.228867 -0.123792 
-0.081384 -0.202334 0.223300 
-0.062203 -0.030040 -0.230649 
0.134860 0.203421 -0.002021 
-0.117158 -0.031007 -0.236495 
-0.116148 -0.090248 -0.262096 
-0.093790 0.064131 0.110158 
-0.129340 -0.025526 0.063411 
0.181319 0.432675 0.040175 
-0.184633 -0.424311 0.130578 
0.039099 0.265531 0.041545 
-0.193501 -0.257369 0.089122 
0.155266 0.457014 -0.086055 
-0.102310 -0.174549 0.243338 
0.217098 0.346734 0.026896 
-0.047060 0.150757 -0.027124 
-0.202900 -0.055287 -0.002237 
-0.122155 0.055869 -0.006712 
-0.044818 0.217790 0.006402 
0.126202 0.280056 -0.039357 
0.214434 0.444433 0.047701 
0.073845 0.309614 -0.007192 
0.104770 0.396651 -0.113420 
-0.015685 0.164295 -0.056409 
0.130153 0.421015 -0.049900 
0.206888 0.469896 -0.062521 
-0.185260 -0.363741 0.097790 
0.155676 0.312334 0.027705 
-0.067218 -0.374627 0.201084 
0.108949 0.192536 -0.127127 
0.045273 0.231737 -0.042760 
0.004961 0.171664 0.028265 
-0.151939 -0.041330 0.108892 
0.153434 0.283614 0.065418 
-0.085831 0.077794 0.060172 
0.132104 0.185074 0.022085 
0.086838 0.069443 0.179235 
0.207330 0.345833 -0.048619 
-0.190358 -0.065556 0.020649 
-0.042211 0.012704 0.130747 
-0.216991 -0.287041 0.109407 
0.164578 0.474953 -0.089451 
-0.107750 -0.100073 -0.278024 
0.221580 0.442760 0.042525 
0.193032 0.448966 -0.132299 
-0.085217 0.176537 -0.045728 
0.058062 0.084634 0.188792 
0.130312 0.211177 0.083300 
-0.040886 -0.387983 0.227881 
-0.012161 0.126889 0.140978 
-0.064558 0.227914 -0.081749 
0.124065 0.398013 -0.026741 
-0.157095 -0.195261 0.148238 
0.110809 0.154616 0.120295 
-0.081496 0.072221 -0.255823 
-0.117845 -0.086953 0.032353 
-0.086093 0.003602 -0.221723 
-0.097436 0.099017 -0.046927 
-0.137298 0.007873 0.126183 
0.212046 0.448962 -0.096802 
0.131243 0.182612 0.118570 
0.232698 0.369408 0.022819 
0.052408 0.191830 0.040422 
0.138262 0.444539 -0.095664 
0.089489 -0.204163 0.302788 
-0.191181 -0.326300 0.125375 
0.013503 0.162509 0.024157 
-0.232293 -0.273197 0.020516 
-0.212937 -0.067203 0.006537 
0.064385 -0.150170 0.280972 
0.097687 0.153839 0.145147 
-0.242918 -0.157144 -0.006299 
0.058965 0.269960 -0.115269 
-0.140753 -0.030636 0.064425 
0.167234 0.431786 -0.049387 
-0.052546 -0.080005 0.201403 
0.022226 0.010805 0.205990 
0.168337 0.275216 0.033697 
-0.221884 -0.260285 0.121174 
-0.030379 0.236935 -0.046119 
0.017377 0.220354 0.079140 
-0.250754 -0.275613 -0.004869 
-0.232281 -0.208228 0.020974 
-0.077925 0.026071 -0.274500 
-0.176974 -0.463890 0.129023 
0.076594 0.260681 -0.071813 
-0.123716 -0.040907 -0.267532 
0.042935 0.254452 0.041541 
-0.086550 0.083111 -0.005831 
-0.182208 -0.167418 0.105507 
-0.181209 -0.269180 0.095312 
0.157425 0.322606 -0.035054 
-0.218502 -0.167304 0.022274 
0.077982 0.269133 -0.064330 
-0.084078 -0.309184 0.225366 
0.136482 0.362649 0.001556 
0.153052 0.397370 -0.164400 
-0.206046 -0.215107 0.097610 
-0.174268 -0.154741 0.126364 
0.034395 0.211168 -0.097461 
0.123039 0.303772 0.073230 
-0.093232 0.019496 0.122591 
-0.077943 -0.200853 0.251087 
-0.045249 0.181990 -0.000043 
-0.179150 -0.269028 0.157185 
0.112243 0.315371 -0.144707 
0.010110 0.182135 -0.203374 
-0.043866 -0.381590 0.231343 
0.178939 0.456436 -0.163336 
-0.136200 -0.035676 0.132571 
0.083290 0.039686 0.169771 
0.142531 0.202795 0.104802 
-0.139635 -0.152899 -0.284915 
0.172177 0.437501 -0.177567 
0.097640 0.168492 0.107576 
-0.064072 -0.056676 0.198151 
0.168391 0.380690 -0.032507 
0.090956 0.241472 -0.106989 
0.175809 0.499442 -0.111595 
0.161989 0.377443 -0.142666 
-0.033373 0.235522 0.010354 
0.154773 0.333293 -0.048337 
0.018609 0.180447 -0.016499 
-0.079426 -0.267929 0.212736 
-0.018698 0.249437 -0.026437 
0.055992 0.235327 -0.044083 
-0.206677 -0.057312 0.012223 
0.100417 0.145516 0.166390 
-0.028820 0.125160 -0.208046 
-0.153533 -0.124286 0.065103 
-0.098822 0.010462 -0.213903 
0.210169 0.298042 0.037602 
-0.104569 -0.226808 0.240443 
-0.159861 -0.015921 0.026571 
0.036938 0.214585 -0.149353 
0.081154 -0.033195 0.232526 
-0.022954 0.233683 0.036384 
0.101925 0.168258 -0.202988 
0.035513 0.303874 -0.103450 
0.109148 0.415078 -0.076641 
0.217482 0.439460 0.015866 
-0.037889 0.220141 0.019625 
-0.098528 -0.049814 -0.279721 
0.020052 0.204347 -0.030451 
0.075469 0.035542 0.199835 
0.113033 0.417538 -0.122503 
-0.256135 -0.256511 0.042953 
0.009510 0.203955 0.053407 
0.043325 0.232624 0.091068 
0.114157 0.168904 0.111434 
0.114316 0.184666 0.149882 
0.181324 0.335332 -0.079084 
-0.084077 0.019710 -0.239958 
0.195881 0.435004 -0.055621 
-0.063782 0.110336 -0.016035 
-0.180674 -0.048161 0.041014 
0.208019 0.255810 -0.002396 
0.147597 0.330982 -0.136783 
0.009347 0.186805 0.013959 
0.012770 0.260839 0.037576 
-0.073654 -0.076836 0.214156 
-0.220559 -0.330262 0.130237 
-0.049166 0.096414 -0.229663 
-0.164831 -0.477391 0.143218 
0.182962 0.380005 -0.090049 
-0.040715 0.125456 0.027144 
0.147773 0.304237 0.039774 
0.118525 0.335749 -0.067016 
-0.064651 -0.289874 0.227228 
0.001632 0.162215 -0.183093 
-0.014130 -0.061781 0.187990 
-0.166874 -0.473818 0.131006 
0.013218 0.185648 0.001173 
0.046570 -0.197953 0.326949 
0.121266 0.179065 0.086549 
0.056952 0.173556 -0.193436 
0.021234 0.259804 -0.016511 
-0.197453 -0.090162 0.024134 
-0.071611 -0.051090 0.186493 
-0.021622 0.065616 0.100344 
0.221800 0.398052 -0.025631 
0.117058 0.396544 -0.061898 
0.229404 0.428914 0.037092 
-0.148304 -0.034376 0.003314 
0.181238 0.477820 -0.094748 
-0.110639 -0.002585 -0.241395 
0.184486 0.418527 0.060553 
0.011010 -0.061779 0.244766 
0.020795 -0.030666 0.153279 
0.083531 0.022312 0.198425 
-0.181861 -0.000465 -0.033944 
-0.060207 -0.399173 0.211899 
0.187406 0.231900 0.043857 
-0.257989 -0.214254 -0.007405 
-0.189416 -0.184990 0.108783 
-0.083082 -0.310496 0.236613 
0.120745 0.201547 0.088373 
0.069146 0.251499 0.028080 
-0.222213 -0.172725 0.025902 
0.068969 0.251740 -0.005303 
0.226084 0.459811 0.023616 
0.015495 0.168062 -0.242378 
0.236023 0.443954 0.037577 
-0.147288 -0.043187 -0.018426 
-0.138962 0.085382 -0.006101 
-0.162924 0.023813 -0.038636 
-0.185704 -0.130183 0.117505 
0.098637 0.274414 -0.058890 
-0.263219 -0.355804 -0.003516 
-0.131711 -0.170821 -0.272121 
0.001666 0.157935 -0.195519 
0.082135 0.354062 -0.161287 
-0.079941 0.114409 0.092901 
-0.193279 -0.159269 0.100858 
-0.176123 -0.168957 0.124292 
-0.081999 0.108829 0.051845 
0.181054 0.408909 0.061843 
0.184924 0.407472 0.010749 
-0.010224 0.245064 -0.078070 
0.169366 0.432451 -0.037830 
0.097732 0.307938 0.024160 
0.001080 0.061246 0.162836 
0.014097 0.163401 -0.212672 
-0.199576 -0.347406 0.154684 
0.054776 -0.089817 0.243860 
-0.193876 -0.047473 -0.039319 
-0.011310 0.162849 -0.037449 
0.048788 -0.012069 0.188258 
-0.009054 0.082671 0.147689 
-0.118523 -0.106320 -0.274955 
-0.030806 0.059763 -0.267540 
0.177472 0.317526 -0.016476 
0.178139 0.432594 -0.053917 
0.156932 0.274171 0.074431 
-0.137609 0.038686 0.101390 
-0.196590 -0.335031 0.136833 
0.203044 0.440946 0.036580 
-0.264436 -0.316917 0.002961 
-0.080732 0.182590 -0.042436 
0.077492 0.327670 -0.156150 
-0.127684 -0.053556 0.074356 
-0.098919 -0.162221 0.236594 
-0.194304 0.016031 -0.057127 
-0.140680 -0.136863 -0.289085 
-0.076841 0.130262 0.054064 
-0.100159 -0.257543 0.208967 
0.214041 0.467804 0.024955 
0.036709 0.282878 -0.016776 
-0.102891 -0.018650 -0.225703 
-0.179152 -0.087374 -0.028882 
0.124957 0.223992 0.074414 
-0.048033 0.223639 -0.063023 
0.004980 0.069135 0.153937 
-0.213637 -0.019862 -0.016773 
0.116244 0.385521 -0.076361 
-0.107267 -0.029869 0.130047 
0.114871 0.347636 -0.066893 
0.102567 0.200843 -0.126298 
-0.087650 -0.186538 0.256588 
-0.012045 0.147767 0.041542 
0.257429 0.425307 0.036816 
0.221023 0.441995 -0.015527 
-0.061923 0.139208 0.031527 
-0.052035 0.094498 -0.242630 
0.204971 0.340586 0.036284 
-0.218858 -0.168880 0.009146 
0.094927 -0.267859 0.337163 
0.059711 -0.130877 0.273356 
0.060648 0.269195 -0.121373 
-0.023011 0.214116 0.028749 
0.013205 0.173264 -0.175852 
0.123700 0.311520 -0.117002 
-0.001337 0.241327 -0.042171 
0.042762 0.216938 -0.158310 
-0.089250 -0.015511 -0.287082 
0.127435 0.194938 0.051602 
0.121496 0.287781 0.011187 
-0.190927 -0.164514 0.140528 
0.167258 0.404623 0.060571 
-0.123680 0.102762 -0.002312 
0.004243 -0.072224 0.199153 
0.037283 0.022310 0.189824 
-0.019209 0.112521 -0.249101 
0.040907 -0.096440 0.252616 
-0.069558 0.080219 0.041689 
-0.236946 -0.142283 0.032496 
-0.057031 0.197018 -0.053246 
-0.019075 0.190547 -0.100909 
0.027309 0.169001 0.101962 
0.196404 0.408961 -0.061132 
0.023962 0.192958 -0.140386 
-0.199364 -0.174799 0.094859 
-0.180981 -0.187544 0.128531 
-0.245171 -0.140966 -0.002160 
0.020278 0.225458 0.075375 
0.113000 0.281339 -0.029224 
0.203884 0.433352 -0.100428 
0.054145 -0.037706 0.229856 
-0.180085 -0.075143 0.019606 
-0.055848 -0.123502 0.170151 
0.001799 0.231662 -0.001664 
0.182442 0.405108 0.059069 
0.031675 -0.014201 0.235372 
0.132937 0.221089 0.055534 
0.197782 0.417740 0.061759 
-0.121526 -0.079862 0.141814 
0.049236 -0.123020 0.257258 
0.122719 0.260363 0.077097 
0.101042 0.354341 -0.070385 
-0.023304 0.081139 -0.254744 
0.071822 0.194285 -0.116657 
0.073240 0.221097 0.030628 
0.147331 0.313575 0.019739 
0.000512 0.270455 -0.053946 
0.037561 0.128599 -0.240578 
-0.032778 0.111203 0.061392 
0.235812 0.373131 0.030242 
0.196444 0.410227 -0.003926 
0.180851 0.400169 -0.125281 
0.128067 0.248108 0.065928 
0.029148 0.138840 0.129062 
-0.115532 -0.097847 0.074079 
0.179705 0.450682 -0.032112 
-0.010520 0.177996 -0.016359 
-0.074014 -0.020718 -0.224669 
-0.011396 -0.037413 0.213124 
-0.082764 0.096708 -0.038888 
-0.105274 -0.038915 -0.250329 
0.140993 0.446782 -0.045289 
0.040253 -0.161835 0.316523 
-0.039526 -0.116573 0.204202 
-0.042622 0.208493 0.040751 
0.054676 0.210312 -0.056706 
0.128113 0.408131 -0.047425 
0.192761 0.364902 0.045911 
-0.124555 0.000010 -0.027951 
0.094838 0.185238 -0.081309 
0.028876 0.177407 0.002711 
0.100022 0.331921 -0.046633 
-0.055442 0.022074 -0.290794 
-0.180138 -0.401525 0.117235 
-0.083635 0.113439 0.061982 
0.199234 0.447853 -0.067033 
0.043366 0.272450 0.067622 
-0.130266 0.095504 -0.052511 
-0.227043 -0.139472 0.012596 
0.088018 0.316594 -0.074413 
0.045613 0.222539 0.067008 
0.189171 0.351520 0.015354 
-0.060550 -0.042483 -0.255834 
-0.225310 -0.180828 0.046178 
0.085852 0.183852 0.086922 
-0.156353 -0.351214 0.149112 
-0.188799 -0.193875 -0.320075 
-0.011020 0.185493 0.084314 
-0.035924 0.215862 0.021567 
0.021084 0.171722 -0.225867 
-0.136143 -0.080673 -0.254508 
0.137261 0.283143 -0.048802 
0.031884 0.167729 0.058964 
0.088568 0.382782 -0.052602 
-0.134556 0.083552 -0.054804 
0.066023 0.138659 -0.225112 
0.194131 0.405643 0.051240 
-0.009934 0.204496 0.070946 
-0.189184 0.014550 0.000960 
0.134397 0.187057 0.093970 
0.247514 0.421621 0.038485 
0.046871 0.271615 -0.085672 
-0.072976 -0.063949 0.179384 
-0.036116 0.124474 -0.202438 
0.170070 0.307908 0.033508 
0.069805 0.138147 -0.202224 
-0.176955 -0.157515 0.090818 
-0.156506 -0.067376 -0.008784 
-0.171344 -0.074289 -0.022823 
-0.013483 0.073411 -0.212626 
-0.035601 -0.346019 0.222090 
0.072917 0.171763 -0.120207 
-0.011803 0.105174 -0.208835 
-0.090100 -0.133052 0.226407 
-0.094523 0.094654 0.070299 
0.198877 0.353313 0.055139 
0.212171 0.384225 -0.054562 
-0.103148 -0.251424 0.239993 
0.087890 0.145685 -0.171214 
0.088338 0.159838 0.098725 
-0.175907 -0.108360 -0.017694 
0.112351 0.428695 -0.110128 
0.012012 0.194427 -0.066442 
-0.045391 0.077731 -0.198394 
0.167872 0.476209 -0.120371 
0.045801 -0.034267 0.191428 
0.099675 0.311749 -0.106387 
-0.247790 -0.333838 0.019616 
0.132898 0.391477 0.003277 
0.062348 0.254580 -0.064531 
-0.031845 0.172621 -0.018343 
0.044474 0.130942 -0.209371 
-0.211114 -0.123461 0.127363 
0.081844 0.333318 -0.154153 
-0.019377 0.200092 -0.025319 
-0.228540 -0.097471 0.015249 
0.065342 0.207458 -0.221361 
-0.106674 -0.046358 0.122723 
0.027280 0.144649 -0.162199 
-0.027709 -0.019866 0.197621 
-0.062157 0.121151 0.029381 
0.084203 0.199278 -0.159327 
-0.048197 0.040643 -0.297006 
0.215298 0.399080 -0.018715 
0.011946 0.217826 -0.085099 
0.159935 0.284184 -0.041972 
0.104330 0.294910 0.048658 
-0.113142 -0.065358 0.126455 
-0.047340 -0.019064 -0.251804 
0.077252 0.209630 0.027876 
0.229814 0.392030 0.011461 
-0.188600 -0.018751 -0.050221 
0.182359 0.406776 0.061880 
-0.071763 0.066823 0.050753 
0.071232 0.063701 0.215062 
-0.012272 -0.034467 0.180933 
-0.129701 0.025271 -0.019755 
0.060882 0.263005 -0.119733 
0.088307 0.216841 -0.159717 
0.039951 0.220878 0.083597 
-0.027660 0.256374 0.009260 
-0.032110 0.245451 0.004800 
0.124190 0.281199 0.011155 
0.088429 -0.261033 0.331413 
0.138035 0.442328 -0.118973 
0.042249 0.163101 0.071679 
-0.120789 0.029240 -0.020784 
-0.073240 0.048006 0.055468 
-0.096968 -0.067749 -0.295384 
0.042652 0.129032 -0.171955 
0.022128 0.200189 -0.194382 
-0.048509 0.185203 0.070726 
0.062333 0.244541 -0.143421 
0.008961 0.255108 -0.095692 
-0.130773 0.111585 -0.007351 
0.065967 0.196105 0.049867 
-0.111009 -0.060328 0.086456 
0.027977 -0.005353 0.223714 
-0.213204 -0.301210 0.107558 
0.064567 0.330835 -0.126271 
-0.026386 -0.001740 -0.265342 
-0.177148 0.048911 -0.003689 
0.024192 0.023093 0.173118 
0.047900 0.174535 -0.230691 
0.220511 0.272809 0.052875 
0.062665 0.369858 -0.088999 
-0.101933 -0.061659 0.100221 
0.050010 0.222270 0.011365 
0.141121 0.335190 0.014467 
0.195827 0.425494 -0.107388 
0.019941 0.278422 0.011699 
-0.080781 0.045758 0.074787 
0.238245 0.409247 0.044331 
-0.029020 0.180863 0.001933 
-0.004635 0.137910 0.116555 
0.191888 0.328377 -0.056545 
0.111300 0.315020 -0.022403 
-0.084412 -0.004929 0.111920 
-0.044670 0.101208 0.067432 
0.148873 0.336348 -0.020956 
0.150070 0.394496 -0.177081 
-0.214593 -0.220857 0.106208 
-0.026816 0.193597 -0.113454 
-0.220937 -0.079890 -0.005145 
-0.004340 0.048437 -0.217340 
0.043616 0.106367 -0.210284 
0.120207 0.216064 0.119978 
-0.063301 0.044550 0.083092 
0.011108 0.152689 -0.178685 
-0.227103 -0.129403 -0.026787 
-0.095311 0.026042 0.123714 
-0.036633 -0.058429 0.125241 
-0.177008 -0.117100 -0.276460 
0.092238 0.120649 0.176757 
0.195771 0.397966 0.047024 
-0.060831 -0.171026 0.225558 
-0.094872 -0.062500 -0.256958 
0.080450 -0.209975 0.287353 
-0.092417 -0.218197 0.219980 
-0.104455 -0.002051 -0.263453 
0.098025 0.317779 -0.048950 
-0.043381 0.027193 -0.218144 
0.072645 0.309024 -0.019690 
-0.002649 0.048834 0.223836 
-0.052399 -0.039045 -0.282423 
0.059974 0.305430 -0.108051 
-0.156843 -0.037534 0.131922 
0.177802 0.447161 -0.051576 
0.024600 0.220805 -0.045335 
-0.181765 -0.381316 0.143651 
0.039608 0.185707 -0.226667 
-0.020780 0.096485 -0.201411 
0.050120 -0.028327 0.215979 
0.046403 0.055142 0.182859 
-0.173674 -0.059716 0.011978 
-0.124947 -0.074229 0.111173 
0.197837 0.419459 -0.131121 
0.084841 0.340533 -0.168459 
0.076799 -0.214493 0.301059 
0.203735 0.418016 -0.072908 
-0.170963 -0.401806 0.153982 
-0.074716 0.085081 0.093344 
-0.021445 0.241535 0.000748 
0.001176 0.055828 -0.247519 
-0.210315 -0.139114 0.037602 
-0.186016 0.003807 -0.051505 
0.075336 0.238308 -0.101682 
-0.018606 0.249871 -0.078552 
-0.030150 0.055040 0.164829 
0.230162 0.456006 0.019039 
-0.035087 -0.088303 0.145903 
-0.094466 -0.019966 -0.209109 
-0.049284 0.073045 -0.268539 
0.004968 0.086894 0.114219 
0.126315 0.325122 -0.170714 
-0.078912 -0.253270 0.202473 
0.186629 0.393769 -0.062730 
0.074951 0.318664 -0.149426 
-0.146798 -0.030036 0.101384 
0.062995 0.213569 -0.100424 
-0.274008 -0.252062 0.013955 
0.149242 0.347589 -0.025148 
-0.018126 0.221034 -0.012398 
0.047067 -0.121771 0.265729 
-0.157640 -0.012128 0.041431 
-0.243960 -0.272134 -0.015805 
-0.007126 -0.064158 0.183152 
-0.080733 0.254662 -0.057348 
-0.210861 -0.197985 0.156114 
-0.005768 0.196322 -0.101983 
-0.093247 -0.343842 0.233438 
-0.189620 -0.242754 0.146467 
-0.090938 0.101206 -0.023851 
-0.150598 -0.105662 -0.289915 
0.204875 0.422882 -0.101170 
-0.141751 0.124087 -0.023650 
0.030860 0.208717 0.011200 
0.185771 0.374680 0.018932 
-0.181235 -0.107552 0.021375 
0.104338 0.337615 -0.013878 
-0.097776 -0.253496 0.252461 
0.091012 0.130355 0.134690 
0.120132 0.204842 0.020510 
0.099224 -0.028503 0.222502 
-0.027366 0.132919 0.022892 
0.158482 0.304764 0.022988 
-0.102758 -0.202864 0.204822 
-0.138945 -0.096244 -0.270261 
-0.103955 -0.054129 -0.259566 
0.183019 0.440880 0.042089 
-0.145279 -0.029959 -0.032680 
-0.138440 -0.003538 0.116754 
0.049144 0.211748 0.004741 
-0.111693 -0.088534 0.135422 
-0.155135 0.061978 -0.007177 
0.031422 -0.015303 0.212383 
0.058957 0.231571 0.014776 
-0.168471 -0.050206 0.117545 
0.186605 0.424194 -0.012609 
0.151324 0.464137 -0.121340 
0.159936 0.326982 -0.145298 
-0.021693 0.221637 0.045142 
0.124197 0.384432 -0.039780 
-0.074044 0.015187 0.080640 
0.066463 0.246168 -0.141377 
-0.053983 -0.024303 -0.275217 
0.168432 0.422678 -0.020829 
-0.016954 -0.081921 0.165782 
0.060236 -0.021548 0.208197 
-0.044440 -0.409487 0.212200 
0.158392 0.273509 -0.058372 
-0.066149 0.014072 -0.283834 
-0.055387 0.038664 -0.236140 
0.198095 0.427201 -0.110396 
0.056565 -0.062173 0.229056 
0.080305 0.048008 0.223229 
-0.081838 -0.018210 -0.309158 
-0.051391 0.136923 0.031272 
-0.093601 0.008973 0.130171 
-0.188144 -0.094895 0.003015 
0.132255 0.229165 0.052938 
0.087597 -0.083624 0.272455 
-0.146140 0.098489 -0.053771 
-0.049467 0.069982 0.073311 
0.099588 0.263290 0.065422 
0.077398 0.004264 0.220973 
-0.131778 -0.083484 0.062997 
-0.196293 -0.103129 0.017007 
0.078079 0.285073 0.025791 
-0.007959 0.244964 0.001097 
0.088902 -0.232628 0.303669 
0.071246 -0.285854 0.315072 
-0.067961 -0.233643 0.215471 
0.066900 0.016178 0.230091 
0.140899 0.202749 0.117220 
0.130275 0.252429 0.053045 
-0.156965 -0.009263 0.015980 
-0.003745 0.114464 -0.261372 
-0.049825 -0.307436 0.224393 
0.013871 0.154999 -0.174371 
0.148095 0.381575 -0.042689 
0.245942 0.444034 -0.019065 
-0.033781 0.153025 0.067231 
-0.103128 -0.195209 0.222233 
0.251332 0.415846 0.021225 
-0.190164 -0.400208 0.119635 
0.009976 0.146302 -0.189051 
-0.190187 -0.256786 0.123703 
-0.061650 0.063175 0.089086 
0.191850 0.436470 0.069812 
-0.148410 -0.159018 -0.278275 
-0.184801 -0.183343 0.109197 
0.132262 0.286068 0.027137 
-0.200235 -0.136718 0.113664 
-0.031780 -0.084605 0.206037 
0.135444 0.378624 -0.177043 
0.236363 0.462529 0.005849 
-0.045635 0.064418 -0.267335 
-0.002335 0.220250 0.060041 
-0.009026 0.292558 -0.121089 
0.175989 0.380228 -0.132132 
-0.010578 0.137689 -0.231425 
-0.118572 -0.099780 0.093962 
-0.159163 -0.040392 -0.034402 
0.232574 0.366422 0.029743 
-0.056085 0.076722 -0.234292 
0.055740 -0.050706 0.257810 
-0.116589 -0.070100 -0.300356 
0.010774 0.194582 -0.021391 
-0.064601 0.111893 -0.037634 
-0.162654 -0.149210 0.125264 
0.109749 0.271707 0.079046 
0.021041 0.178929 -0.041725 
-0.069356 -0.266684 0.235410 
-0.180713 -0.093406 -0.037140 
-0.142827 -0.022844 0.093528 
0.038611 0.253529 -0.026323 
0.148293 0.278825 -0.010182 
-0.040394 0.055309 -0.273511 
0.107854 0.416870 -0.107688 
0.055329 0.193521 -0.093674 
0.205686 0.372663 0.012332 
0.171648 0.391660 0.029105 
0.014171 0.204340 -0.138127 
0.041392 0.273867 -0.018629 
0.094870 0.157983 0.103151 
0.119108 0.196201 0.065799 
0.215402 0.405132 0.053200 
-0.081992 -0.046965 -0.279379 
-0.159940 -0.062870 -0.030732 
0.007780 0.251033 0.023595 
0.107949 0.320598 -0.157764 
0.161836 0.440355 -0.033622 
-0.066790 0.080618 0.096933 
-0.176798 -0.058436 0.025487 
-0.034144 0.257173 -0.057956 
-0.207985 -0.081217 -0.052179 
-0.039101 -0.141767 0.199014 
-0.199967 -0.132194 0.023539 
0.205006 0.371186 0.008753 
0.123790 0.226501 0.103594 
-0.042211 0.036971 0.136321 
0.208230 0.410489 -0.065611 
0.003315 0.227959 -0.100292 
-0.017788 0.054552 0.132326 
0.026076 0.254611 -0.043346 
0.180189 0.333416 -0.084598 
0.073950 -0.200643 0.321755 
-0.081182 -0.018366 -0.242048 
-0.015717 -0.007383 -0.278759 
0.069163 0.139909 0.158240 
-0.160860 -0.101312 -0.013352 
0.159449 0.308820 -0.054557 
-0.128532 -0.066152 -0.238186 
0.031308 0.150087 -0.248360 
-0.121539 0.027459 0.097611 
0.037305 0.000151 0.241527 
0.195674 0.419882 -0.119129 
0.073987 -0.035744 0.210896 
0.084838 0.213729 0.090102 
0.100431 0.136469 0.154731 
-0.205926 -0.045262 -0.021639 
0.194333 0.219543 0.020516 
0.070952 0.310223 -0.141371 
-0.059461 0.060284 0.066520 
-0.163167 -0.149993 0.135560 
-0.021007 0.082526 -0.270988 
0.071525 -0.279455 0.315928 
0.198858 0.280550 0.035440 
0.188629 0.390790 -0.005417 
0.198948 0.302599 0.046851 
0.017191 0.178767 -0.020397 
0.078988 0.228352 -0.021254 
-0.003902 0.121689 0.094224 
-0.047470 -0.421657 0.231142 
-0.081683 0.077503 -0.243095 
0.218193 0.463986 0.015846 
-0.205712 -0.176257 -0.286711 
-0.204559 -0.124271 -0.042085 
-0.258767 -0.208413 -0.029575 
-0.222808 -0.287967 0.115926 
-0.212964 -0.200177 0.093967 
0.103967 0.300733 -0.114497 
-0.105351 -0.183675 0.223158 
-0.196024 -0.155671 -0.289055 
0.133474 0.258904 0.000561 
0.097080 0.234974 -0.177405 
-0.065239 -0.192816 0.225346 
0.079039 -0.036850 0.214018 
-0.180230 -0.341092 0.159311 
-0.060592 -0.000982 -0.252148 
-0.151102 -0.074220 -0.260548 
-0.182148 -0.034197 0.017232 
-0.083790 0.081028 0.041774 
-0.249193 -0.287780 0.012288 
-0.136151 -0.113997 0.114426 
0.041757 0.160013 -0.144307 
0.182413 0.417065 0.049514 
-0.231589 -0.339117 0.010453 
-0.126947 0.069172 0.003059 
0.155896 0.399327 -0.021830 
0.127877 0.376584 -0.096933 
0.192341 0.385273 -0.097715 
-0.064509 -0.049342 0.197490 
0.058935 0.182409 -0.104153 
-0.010633 0.131492 0.096108 
0.194774 0.337192 -0.007650 
-0.207056 -0.192565 0.032975 
-0.217553 -0.111275 -0.013074 
0.041343 0.253381 -0.047506 
0.122083 0.374574 -0.021451 
0.187904 0.419463 -0.136184 
-0.037098 0.010580 0.169779 
-0.187656 -0.273060 0.100255 
-0.156780 -0.395271 0.158915 
0.117354 0.345453 -0.009061 
-0.066906 -0.021992 0.153880 
-0.013233 0.006943 0.125476 
-0.077912 -0.112670 0.217925 
-0.029131 0.178372 0.004872 
0.060733 -0.121995 0.271724 
-0.070990 0.033707 -0.245069 
-0.121292 -0.005351 0.127692 
-0.261420 -0.299884 0.018950 
0.033529 0.221268 -0.049845 
0.057216 0.250126 0.040594 
0.050154 -0.113389 0.275139 
-0.201623 -0.023344 -0.033376 
-0.101555 -0.005862 -0.226939 
-0.067444 -0.033190 -0.243229 
0.196752 0.444491 0.010888 
0.091777 0.337805 -0.090953 
0.126194 0.433707 -0.120359 
-0.159314 -0.076391 0.100646 
0.049771 0.162277 -0.147634 
0.140128 0.202203 0.112960 
-0.077539 -0.188591 0.237999 
0.017449 0.269966 -0.006098 
0.162276 0.372855 -0.121362 
0.209746 0.422886 -0.104680 
0.090926 -0.293588 0.316652 
0.094992 0.313887 -0.062149 
-0.007165 -0.083195 0.161589 
0.023872 0.190779 -0.172112 
0.188916 0.429542 -0.155088 
-0.232253 -0.216799 0.003595 
0.062821 0.238900 -0.103140 
0.079872 -0.100008 0.272357 
0.088110 0.132483 0.180142 
0.000598 0.058479 0.131275 
0.002492 0.235810 0.002531 
0.185102 0.412374 0.053597 
-0.094104 -0.049634 0.103423 
-0.168730 -0.171591 0.146485 
-0.024235 0.248434 -0.021901 
-0.106308 -0.015905 0.143909 
0.171824 0.341243 0.018398 
-0.072014 -0.264150 0.247603 
-0.103979 0.041686 0.102223 
0.084308 0.161563 -0.166526 
0.132470 0.370881 -0.126766 
-0.074632 0.015580 0.141998 
-0.144406 0.031160 -0.003226 
-0.011245 0.030765 0.133978 
0.130192 0.233523 0.009078 
0.121638 0.427149 -0.068385 
-0.120071 -0.042436 -0.234342 
0.068810 -0.236738 0.331436 
0.081877 0.190197 -0.158536 
0.010129 0.085931 -0.267500 
0.145413 0.213045 0.033571 
0.027809 0.207531 0.054992 
0.079361 0.343272 -0.115380 
0.041546 0.156676 -0.189542 
0.094066 -0.262784 0.337811 
-0.022312 -0.091995 0.196618 
-0.021622 0.203213 0.005062 
-0.099960 0.002585 -0.256333 
-0.076642 -0.341901 0.201490 
-0.080545 -0.108528 0.179721 
0.183910 0.262628 0.030709 
0.032005 0.185098 0.052747 
0.195026 0.402486 0.061224 
-0.019604 0.153111 0.015949 
0.120937 0.331130 0.025335 
0.219842 0.386639 -0.012199 
-0.110504 -0.054469 -0.237943 
0.076071 -0.016915 0.220366 
0.091229 0.116571 0.184050 
0.052355 -0.219058 0.304436 
-0.062702 -0.008003 0.171534 
0.035201 -0.058706 0.258243 
0.048198 0.243655 -0.126925 
0.026427 0.155607 0.109486 
-0.188138 -0.205853 0.156289 
-0.216385 -0.350003 -0.020437 
0.037570 0.271811 -0.020255 
-0.115080 0.131216 -0.039415 
-0.057040 -0.033147 0.107285 
-0.101023 -0.004421 -0.280157 
-0.040736 0.023378 -0.192530 
0.094054 0.187028 0.097805 
0.009967 0.271142 -0.048394 
-0.038229 0.200989 0.040955 
0.062225 -0.304530 0.319602 
0.026648 0.032296 0.196160 
-0.106036 -0.092808 -0.300259 
0.098773 0.221921 0.030608 
0.131485 0.183857 0.039695 
0.029289 0.216040 -0.061413 
0.120581 0.399734 -0.066379 
-0.147979 -0.102314 0.045083 
0.215926 0.441635 -0.083821 
0.099064 0.209132 0.033630 
0.003086 0.153057 0.103765 
-0.273308 -0.205971 0.002592 
-0.189560 -0.412388 0.147854 
-0.074228 -0.380700 0.191811 
-0.082129 -0.019573 0.123187 
0.166449 0.416060 -0.042973 
0.090874 0.113431 0.174046 
-0.206714 -0.134913 0.006893 
0.155216 0.414080 0.031038 
0.160758 0.359580 -0.081707 
0.046037 -0.055185 0.225944 
-0.089551 0.054254 -0.233598 
0.079248 0.108565 0.157791 
-0.252997 -0.189545 0.011993 
0.133504 0.443298 -0.072831 
-0.257735 -0.245953 0.020267 
-0.183321 -0.162851 0.132302 
0.078028 0.287012 0.034735 
-0.079535 -0.059952 -0.275778 
-0.177520 -0.375958 0.160250 
0.175044 0.464280 -0.089395 
0.046067 -0.077637 0.281618 
-0.131127 0.093871 -0.036573 
0.097853 0.403677 -0.077928 
0.161887 0.310904 0.031064 
-0.231700 -0.180963 0.025022 
0.116572 0.316606 -0.084897 
0.102044 0.108369 0.174417 
-0.248848 -0.232449 -0.009634 
-0.053670 -0.008252 0.128692 
-0.115969 -0.068842 0.140398 
-0.128270 -0.098785 -0.257418 
-0.129128 -0.067228 0.134417 
0.110012 0.194597 -0.128080 
-0.214618 -0.226060 0.157697 
0.112785 0.287448 -0.005697 
0.018171 0.201518 -0.097714 
0.001416 0.134144 -0.191527 
0.201916 0.367188 0.011581 
-0.198272 -0.365295 0.125096 
-0.066728 -0.119637 0.219699 
-0.000260 0.046446 0.128896 
-0.181452 -0.014045 0.004759 
0.052222 0.201523 0.036826 
0.029108 0.265548 -0.099220 
-0.087388 0.157788 -0.007828 
0.026971 0.187042 -0.141853 
0.024654 -0.006713 0.209292 
-0.061035 -0.349607 0.250192 
-0.201532 -0.122773 0.033001 
0.120420 0.199579 0.046930 
0.048167 0.203939 0.106230 
-0.086483 0.117847 -0.006103 
-0.043075 0.066734 0.111298 
0.173885 0.423500 -0.155913 
0.077390 0.266413 0.045027 
0.163434 0.401676 -0.171150 
0.153227 0.338632 -0.134814 
0.113427 0.233368 0.090368 
-0.074915 0.110582 -0.047801 
-0.206305 -0.326067 0.134658 
0.020468 0.258698 0.025781 
0.117228 0.402041 -0.075240 
0.105873 0.318075 -0.045218 
0.082938 0.234836 -0.095232 
0.076082 0.256441 0.038960 
-0.060070 0.206160 -0.085978 
-0.023696 0.128717 0.045244 
0.106260 0.429772 -0.086559 
0.054289 0.295286 0.002159 
-0.025322 0.232066 -0.004367 
-0.066058 0.066811 0.080863 
-0.125214 -0.117788 0.118013 
0.087609 -0.067846 0.250853 
-0.036601 -0.390574 0.230902 
-0.014165 0.138416 -0.206638 
-0.164629 -0.242523 0.123421 
-0.133480 0.050885 0.016985 
0.013084 0.026783 0.205511 
0.083986 -0.052102 0.204564 
0.009501 -0.020499 0.151568 
0.122977 0.319820 -0.013969 
-0.160356 -0.414330 0.151302 
-0.202162 -0.009091 -0.008987 
0.026183 -0.050297 0.229915 
-0.173250 -0.377620 0.132012 
-0.023628 -0.006525 0.125132 
-0.049652 0.088247 -0.254071 
0.035162 0.275796 0.033020 
-0.080956 0.046594 -0.202664 
0.113718 0.201878 0.121295 
0.054005 0.246591 -0.065001 
-0.047790 -0.037448 0.146812 
-0.126668 -0.041976 0.137878 
0.069921 0.278274 -0.055991 
-0.108699 0.153621 -0.057048 
-0.235092 -0.152046 0.016231 
0.074079 0.170592 -0.163597 
-0.106881 0.063163 -0.013886 
-0.194515 -0.353236 0.144084 
-0.055568 0.143017 -0.084397 
-0.032526 0.069212 0.139665 
0.066941 0.178696 -0.150722 
0.007803 0.079099 -0.259642 
0.252994 0.424045 -0.007243 
0.048761 0.205909 -0.001784 
0.162374 0.398105 0.044158 
0.159162 0.458423 -0.115811 
-0.214370 -0.178569 -0.299883 
0.035075 0.262353 -0.096242 
0.206683 0.433761 -0.146895 
-0.285651 -0.181286 0.006342 
0.145346 0.471471 -0.113165 
0.041965 -0.015016 0.175873 
0.101918 0.418832 -0.103087 
0.117333 0.320047 -0.037065 
0.071013 0.145189 0.161300 
0.099485 0.123317 0.169572 
0.203898 0.454135 -0.142817 
0.053944 0.174594 -0.111112 
0.097704 0.351736 -0.153300 
0.271738 0.425337 0.023634 
-0.030929 0.154129 0.060650 
-0.206258 0.026206 -0.020027 
-0.244356 -0.160464 -0.028642 
0.089215 0.200911 -0.090758 
0.054256 0.276745 -0.073284 
-0.000434 0.078765 0.115724 
-0.042530 -0.038624 0.121128 
0.074115 -0.190776 0.326287 
0.121018 0.280012 0.047535 
0.092709 0.295735 0.006074 
0.030777 0.024735 0.200479 
-0.023591 0.033762 -0.256678 
0.111371 0.373656 -0.109948 
0.094985 0.095100 0.189956 
0.058074 0.233140 -0.078518 
-0.025636 0.170104 0.011010 
-0.155719 -0.451168 0.143533 
0.017123 0.223236 -0.085059 
0.115937 0.314901 0.057110 
0.148944 0.375634 -0.150345 
-0.094679 -0.098163 -0.244156 
0.076231 -0.045477 0.206745 
-0.091700 -0.279064 0.199720 
0.193645 0.435598 -0.128221 
0.063506 -0.181256 0.278346 
0.117975 0.283205 0.038497 
-0.087394 0.032384 0.063088 
-0.037095 0.104161 -0.212433 
-0.177436 0.049793 -0.041478 
-0.034255 0.241200 -0.074777 
0.067539 0.311575 -0.104817 
-0.170908 -0.430384 0.150383 
0.190019 0.484741 -0.087320 
0.052272 0.268370 -0.100484 
-0.086515 -0.210794 0.248330 
-0.224513 -0.100505 -0.038804 
-0.258670 -0.349256 -0.004396 
0.092482 -0.274761 0.305184 
-0.212873 -0.180504 0.126096 
0.031132 0.215683 -0.078016 
-0.042295 0.072856 -0.260895 
-0.069382 -0.139595 0.169483 
0.195103 0.420662 -0.041609 
0.100906 0.320029 -0.046236 
0.093280 0.312913 -0.103802 
0.036630 0.245261 -0.042373 
0.002526 0.073068 -0.276299 
-0.066254 0.046250 -0.218719 
0.056800 0.190008 0.101693 
0.182831 0.342406 0.010610 
0.166235 0.299880 -0.030322 
-0.004766 0.049253 -0.261337 
0.032187 0.267719 0.019755 
-0.176098 -0.171635 -0.285950 
0.088334 -0.263940 0.322267 
-0.064839 -0.269077 0.212008 
0.187744 0.299377 0.074127 
0.039895 0.210798 0.036051 
-0.048565 0.188675 -0.013616 
0.183960 0.401062 -0.123612 
0.148664 0.485903 -0.130144 
0.033009 0.047318 0.211053 
