-0.226168 -0.213765 0.139895 
0.069301 -0.106045 -0.251409 
0.170713 -0.091248 -0.080634 
-0.037074 -0.068882 -0.069870 
0.238263 0.011077 0.042612 
-0.250124 -0.461439 -0.094022 
-0.280130 -0.473832 -0.074472 
0.005020 -0.015195 0.196979 
0.010872 -0.257582 0.107140 
0.139671 -0.072420 0.144738 
0.006767 -0.128386 -0.066811 
-0.051875 -0.262087 0.083349 
0.130834 -0.117958 -0.037471 
-0.072825 -0.338214 0.137751 
-0.032092 0.013006 -0.223100 
0.261533 0.183023 0.094620 
-0.019442 -0.132160 -0.054149 
0.135770 0.178671 -0.003955 
0.101440 -0.159927 0.164520 
0.092736 -0.228529 0.228747 
0.300743 0.316480 0.052681 
-0.096257 -0.339361 0.185448 
-0.150586 -0.118420 0.313088 
0.133375 0.125259 0.058661 
0.022257 0.020972 -0.236418 
0.021526 0.077821 0.023813 
-0.067570 -0.337122 0.103905 
-0.393822 -0.336356 0.104790 
0.258157 0.337991 -0.045719 
0.154527 0.182331 -0.053883 
-0.084589 -0.315392 0.248751 
0.077319 -0.212035 0.266483 
-0.451951 -0.350837 0.027934 
-0.213027 -0.442017 -0.014622 
0.172848 0.137480 -0.126933 
-0.264359 -0.208268 0.209210 
0.137733 0.094451 0.079310 
0.251791 0.212787 -0.063217 
-0.080964 -0.121644 0.003491 
0.170762 0.034215 0.117618 
-0.200157 -0.406560 0.046282 
0.196202 0.186125 -0.021172 
0.316389 0.324958 -0.076680 
0.090224 -0.108574 -0.184760 
-0.011053 -0.073188 0.294350 
0.150271 -0.001615 0.109988 
-0.094539 -0.291274 0.087956 
0.350139 0.456586 -0.041333 
0.071562 -0.145895 -0.058628 
0.182211 -0.079399 -0.003611 
-0.030808 -0.225458 -0.289329 
0.104365 0.114804 0.052123 
0.155782 0.144353 0.047511 
-0.104321 -0.037626 0.240199 
0.054106 -0.148611 -0.040324 
-0.110796 -0.062160 0.045695 
-0.142721 -0.069547 0.235724 
0.297644 0.103618 -0.057642 
0.368124 0.415511 -0.075200 
0.351478 0.194357 0.082940 
-0.106152 -0.047363 0.153361 
0.081511 -0.079984 -0.226397 
0.260418 0.439255 -0.029034 
-0.085668 -0.310922 0.071968 
-0.126025 -0.244292 0.184990 
0.185812 -0.008525 -0.170519 
0.136520 -0.140314 0.144606 
0.221069 0.215499 -0.018212 
-0.087926 -0.086582 0.313379 
-0.048483 -0.200256 0.053650 
-0.259929 -0.481759 -0.033235 
-0.358246 -0.313623 0.145045 
0.125216 -0.061353 -0.187382 
0.022089 -0.138412 0.311325 
0.093696 -0.189261 -0.004430 
0.261461 0.012467 -0.132615 
0.175356 -0.084811 -0.020026 
0.172964 -0.092738 0.061449 
-0.019659 -0.205907 -0.354502 
0.322317 0.350508 0.073657 
-0.112216 -0.292443 0.157228 
0.049204 -0.277360 0.209066 
-0.052745 -0.066246 -0.066303 
-0.120608 -0.114733 0.094718 
-0.130694 -0.328400 0.096375 
0.086551 0.089470 0.057984 
0.002330 -0.306564 0.131395 
0.209018 0.050075 0.101403 
-0.076969 -0.286299 0.084284 
0.301679 0.146813 0.081457 
-0.114802 -0.101204 0.310510 
0.271799 0.210084 0.077411 
0.266401 0.502335 -0.103629 
0.063289 -0.252141 0.176458 
0.256700 0.405470 -0.082056 
-0.111531 -0.052313 0.195682 
-0.106106 -0.349861 0.058382 
0.284374 0.049608 -0.035247 
-0.021254 0.027905 -0.042090 
0.078683 -0.214327 0.055469 
-0.023972 0.017156 -0.316176 
-0.043486 -0.114034 0.320235 
0.211381 0.113218 0.091476 
0.055942 -0.162790 -0.238632 
-0.037296 -0.302330 0.089798 
-0.034214 -0.319316 0.255492 
0.023875 -0.190894 -0.014408 
0.082275 0.007912 -0.159773 
0.289139 0.057156 -0.081174 
0.402333 0.428390 -0.009895 
-0.032430 -0.290901 0.312888 
-0.217933 -0.129064 0.193751 
-0.039744 -0.195506 -0.368511 
-0.035821 -0.089145 0.315220 
0.389636 0.301443 0.011589 
-0.089490 0.009001 -0.436588 
0.377949 0.350277 -0.026688 
-0.075856 -0.334956 0.184454 
-0.074426 0.006837 -0.382274 
0.283614 0.379011 0.006485 
0.081917 -0.124499 -0.063182 
0.199210 -0.021241 -0.172899 
0.154060 -0.141640 0.056052 
0.041733 0.128103 -0.074894 
0.006302 -0.174887 0.340911 
-0.114821 -0.321630 0.140724 
-0.093056 -0.309270 0.058668 
0.061501 -0.111616 0.254718 
-0.018954 0.032076 0.025932 
-0.216103 -0.419404 -0.009275 
0.240965 0.482496 -0.145272 
0.318099 0.130769 -0.031873 
-0.036534 0.026575 -0.308354 
-0.030157 -0.239961 -0.409587 
-0.413012 -0.353733 0.035435 
-0.018348 -0.247088 0.329642 
-0.040906 -0.240061 0.332616 
-0.177806 -0.366872 0.075338 
-0.109976 -0.093987 0.041520 
-0.019689 0.048005 0.064406 
0.319826 0.318338 0.027242 
0.029145 -0.293830 0.155806 
-0.046434 -0.233600 -0.431058 
0.023047 0.033540 -0.241120 
0.364528 0.350769 -0.081570 
-0.177057 -0.146920 0.307063 
0.170860 0.148927 0.036651 
-0.002821 -0.272791 0.316637 
0.392856 0.418424 0.049847 
0.146234 -0.062401 0.127993 
0.393644 0.254010 0.014365 
0.008674 -0.321317 0.225856 
0.373586 0.337157 0.062403 
0.178120 -0.034003 0.068774 
-0.422716 -0.384803 0.050698 
-0.434814 -0.348111 0.018649 
-0.007744 -0.262335 0.078083 
0.073656 -0.124668 -0.074969 
-0.102208 -0.069937 0.285947 
0.159238 -0.149985 0.080817 
-0.240734 -0.154083 0.234597 
0.265313 0.076130 0.065971 
-0.074650 -0.196007 0.117521 
-0.295840 -0.240181 0.112641 
0.170233 -0.073071 -0.158874 
-0.011616 -0.200644 -0.279945 
-0.447626 -0.386163 -0.059202 
0.097959 -0.121977 -0.059516 
0.012181 -0.037300 0.257964 
0.025355 0.118740 -0.127865 
-0.182972 -0.175900 0.142511 
0.092004 -0.029222 -0.164823 
-0.085179 -0.076926 -0.017811 
0.016705 -0.180169 0.327476 
0.126549 -0.186620 0.017815 
0.198158 0.192287 -0.025830 
-0.251364 -0.462320 -0.137331 
-0.009319 -0.245723 0.088943 
0.003933 -0.160419 -0.264762 
0.001965 -0.018757 -0.250963 
0.066214 -0.272879 0.213430 
0.331514 0.284610 -0.046809 
-0.254537 -0.207323 0.218422 
-0.146531 -0.077661 0.271045 
-0.050110 -0.027103 -0.027767 
0.204497 -0.030505 0.064863 
-0.141044 -0.129769 0.333625 
-0.258300 -0.482546 -0.015738 
0.208335 -0.011693 -0.162207 
-0.126487 -0.321624 0.081034 
-0.060272 0.010489 -0.002938 
0.004907 -0.012055 0.195385 
0.296896 0.391248 -0.091231 
0.036655 -0.104135 -0.228163 
0.070057 -0.215158 0.287645 
-0.123215 -0.078150 0.146604 
0.179776 -0.038869 0.079388 
-0.158165 -0.225817 0.189759 
0.121244 -0.131742 0.187420 
0.388411 0.290846 0.084747 
-0.015134 0.021935 -0.202001 
-0.067227 -0.195003 0.088275 
-0.358581 -0.283084 0.142431 
-0.006561 0.001362 -0.267069 
0.341297 0.413873 0.086573 
-0.128341 -0.054759 0.259297 
0.435469 0.430512 0.025111 
-0.021024 -0.006093 -0.254767 
-0.104437 -0.279509 0.284396 
0.131606 -0.148952 0.064180 
-0.189184 -0.111832 0.153718 
-0.024300 -0.028016 -0.080318 
0.097324 0.056677 0.087902 
-0.144398 -0.391999 0.051713 
-0.033027 -0.050296 -0.075333 
-0.215389 -0.181820 0.253843 
0.263749 0.448756 -0.038121 
0.083774 -0.217715 0.198894 
0.297362 0.270666 -0.057802 
0.291330 0.451487 -0.110910 
0.194369 -0.041194 -0.180169 
-0.265638 -0.495116 -0.098603 
-0.290082 -0.478975 -0.107238 
0.370983 0.417834 0.073559 
0.229831 0.169603 0.063365 
-0.170454 -0.396550 0.036752 
0.037031 -0.272552 0.131183 
0.095822 -0.200136 0.256451 
0.184124 -0.061360 -0.161176 
0.105619 0.164078 -0.052165 
0.293498 0.055812 -0.008531 
0.190048 0.039148 0.100324 
-0.478303 -0.374862 0.008593 
0.005210 -0.227452 0.088358 
-0.027660 -0.204072 -0.403620 
0.073161 -0.167354 -0.021243 
-0.133412 -0.237889 0.288934 
0.146173 -0.030085 -0.189982 
-0.416389 -0.334021 0.078485 
0.274371 0.486128 -0.089694 
0.340955 0.370360 0.071959 
0.043004 -0.160946 0.305176 
-0.043570 -0.331802 0.184697 
0.035847 -0.170925 -0.251032 
0.173855 0.160700 -0.112144 
-0.025263 -0.210965 -0.396748 
0.025625 0.069833 -0.008964 
0.104385 0.063550 -0.175935 
-0.082737 -0.275122 0.148932 
0.012923 -0.013228 -0.107091 
-0.102312 -0.240433 0.147997 
0.269131 0.159837 -0.093344 
0.384834 0.443179 0.039171 
0.371645 0.395751 0.072634 
0.243598 0.165917 0.057667 
0.000288 -0.299831 0.275438 
-0.065653 -0.234428 0.130310 
-0.104069 -0.031497 0.253462 
-0.122210 -0.252084 0.185129 
0.140462 -0.164151 0.027714 
-0.187457 -0.215811 0.219192 
0.392267 0.360027 0.016581 
0.379991 0.416646 0.045527 
-0.105930 -0.308291 0.083467 
0.070431 -0.256252 0.227729 
-0.045020 -0.152985 -0.010672 
0.074738 -0.080889 -0.149491 
0.269460 0.224468 0.050016 
-0.416116 -0.339089 0.064119 
0.144714 0.027730 0.121995 
0.311515 0.404149 -0.098280 
0.271320 0.338017 -0.003411 
0.075246 -0.037715 0.171146 
0.101217 -0.198592 0.250156 
0.314642 0.468795 -0.073167 
0.124148 -0.151716 0.162579 
-0.093408 -0.023337 0.023382 
0.396694 0.339100 0.042881 
-0.391964 -0.312952 0.092450 
0.071429 -0.248836 0.262796 
0.389566 0.438738 -0.042207 
0.147541 -0.142771 0.006179 
-0.163258 -0.160324 0.330791 
0.014524 0.059063 -0.230359 
0.015157 0.079101 -0.116782 
-0.414464 -0.352526 0.030073 
0.054932 -0.087293 -0.212165 
-0.248936 -0.470393 -0.129621 
0.063758 -0.099243 -0.114731 
0.371647 0.250330 0.098352 
0.093096 -0.184906 0.268674 
-0.106814 -0.123181 0.030028 
0.100738 -0.153815 0.251676 
-0.123540 -0.022124 -0.439524 
-0.030471 -0.010104 -0.272286 
0.247710 0.421739 -0.040156 
0.056223 0.002538 -0.156234 
0.309856 0.459141 -0.014148 
0.348202 0.397377 0.075270 
-0.059891 -0.031502 -0.378073 
0.368606 0.317747 -0.011977 
-0.123206 -0.319153 0.114826 
-0.029387 -0.236908 0.073354 
0.400903 0.300532 0.012818 
0.004800 -0.257897 0.322589 
-0.139201 -0.312773 0.070684 
-0.022761 -0.248985 0.328642 
-0.068788 -0.024022 0.196002 
0.008225 -0.159605 -0.270215 
0.131563 -0.100062 -0.053975 
0.365322 0.261518 0.100082 
-0.244333 -0.171468 0.156729 
0.074143 -0.160214 -0.041710 
-0.331990 -0.303094 0.167835 
0.226996 -0.039617 0.007825 
0.010000 0.039030 -0.128827 
-0.072375 -0.298870 0.078576 
0.116184 0.016272 0.115351 
-0.000524 -0.174751 -0.020492 
0.141188 -0.062554 -0.202579 
-0.017138 0.034204 -0.024471 
0.392087 0.275221 0.015528 
-0.299368 -0.283392 0.142607 
0.044144 -0.084253 0.258209 
0.327549 0.157699 -0.046617 
0.002892 0.006313 -0.069077 
0.373532 0.212423 0.029227 
-0.177613 -0.405017 0.059558 
0.010341 0.012012 -0.187211 
0.013781 -0.192119 -0.271928 
0.284669 0.293045 -0.034809 
0.400046 0.301553 0.029199 
-0.331976 -0.265107 0.132842 
0.039401 -0.253143 0.306327 
0.330815 0.417859 -0.093556 
0.190978 -0.015221 0.065973 
0.313276 0.407436 -0.106559 
-0.103297 0.028002 -0.450754 
-0.088164 -0.299769 0.125091 
-0.144459 -0.245468 0.280117 
0.004829 -0.255259 0.090792 
0.040310 -0.288107 0.193229 
-0.253784 -0.454868 -0.132198 
0.001766 -0.021773 -0.098305 
0.163088 -0.107909 0.041134 
0.145745 0.024454 -0.173154 
0.058948 -0.212588 0.294183 
0.122172 -0.200281 0.149741 
-0.033671 -0.156214 0.337027 
0.255565 0.370822 -0.062357 
-0.135940 -0.212200 0.320559 
-0.174763 -0.168811 0.154157 
-0.090773 -0.086300 0.309375 
-0.012460 -0.322806 0.201259 
0.291326 0.324256 0.004583 
0.316592 0.459398 -0.084190 
-0.024374 -0.052906 0.279051 
0.061620 -0.123572 -0.188056 
0.376520 0.279457 0.103380 
-0.453124 -0.352210 0.029571 
-0.241633 -0.476549 -0.109968 
0.316549 0.170418 -0.051809 
-0.008895 -0.218192 0.072813 
0.087297 0.061972 -0.196237 
0.123608 -0.184475 0.162899 
-0.104023 -0.313462 0.156867 
0.101674 -0.089404 -0.108477 
-0.155112 -0.360880 0.093625 
0.093179 -0.059888 0.183533 
0.259708 0.024710 0.017862 
0.171434 -0.082519 0.079130 
0.295507 0.453577 -0.100273 
0.260069 0.225038 -0.073949 
-0.062572 -0.306164 0.289279 
0.280170 0.128400 0.096688 
0.291465 0.420413 -0.108349 
-0.244447 -0.168903 0.164912 
-0.077217 -0.008009 -0.320549 
-0.091520 -0.028114 -0.363668 
0.140227 0.083813 -0.179618 
0.352667 0.237065 -0.018528 
-0.183121 -0.104803 0.155557 
-0.201767 -0.240648 0.248695 
-0.061255 -0.232871 0.342631 
0.109397 -0.157209 0.224049 
-0.058785 0.034166 -0.265077 
0.300138 0.091724 -0.031886 
-0.111802 -0.315885 0.117226 
-0.086375 -0.030977 0.152816 
-0.196675 -0.106627 0.215360 
-0.149169 -0.380537 0.105483 
-0.096220 -0.024397 0.169589 
0.029747 0.032067 -0.140022 
0.138055 0.165609 0.014288 
-0.085913 -0.010109 0.027067 
0.011229 -0.304774 0.163894 
0.032419 -0.282219 0.172256 
-0.224169 -0.444095 -0.030057 
-0.079574 -0.240067 0.142821 
-0.010128 0.014382 0.148746 
0.106974 0.091835 0.053834 
0.393290 0.301421 0.003169 
0.313048 0.338265 0.054809 
-0.027071 -0.009909 0.185126 
-0.067025 -0.254958 0.137363 
0.046613 -0.093158 0.263577 
0.352844 0.407693 0.088258 
-0.135526 -0.383897 0.050369 
-0.131226 -0.229561 0.160754 
-0.057756 -0.248945 0.331435 
-0.246558 -0.447708 -0.072540 
0.088268 -0.092352 -0.099007 
0.110350 0.166126 -0.029991 
0.296509 0.091551 0.003310 
-0.033845 0.034694 0.000476 
-0.091474 -0.160577 0.057815 
-0.037429 0.048118 0.031988 
0.230113 0.116646 -0.108966 
0.029465 0.028894 -0.099818 
0.014766 -0.141589 -0.260221 
0.086171 0.102435 -0.207877 
-0.066929 -0.017952 -0.479947 
-0.218447 -0.194144 0.257701 
0.157807 0.172389 -0.083655 
-0.120271 -0.260493 0.240472 
0.167615 0.126477 0.062511 
-0.000328 0.059204 -0.004330 
0.015015 0.022873 -0.118719 
0.289034 0.486261 -0.062134 
-0.047555 -0.051056 -0.068453 
-0.228573 -0.223036 0.182598 
0.045358 0.088970 0.018723 
0.146356 -0.152642 0.040440 
0.168297 -0.063056 0.093678 
-0.028572 0.040221 -0.303411 
-0.191684 -0.243005 0.236628 
-0.151297 -0.244238 0.309025 
-0.109877 -0.094339 0.040746 
0.358903 0.196487 0.014569 
-0.086174 -0.328544 0.164947 
0.150493 0.186084 -0.078222 
0.020892 -0.290725 0.246528 
0.113959 0.169779 -0.029438 
-0.059281 -0.026102 -0.370302 
-0.075870 -0.319939 0.068200 
-0.288935 -0.250418 0.123654 
0.265669 0.389924 0.001397 
0.184887 0.170592 0.003647 
0.273088 0.323537 -0.025812 
0.323765 0.337373 0.090685 
-0.005260 -0.177702 -0.260828 
0.155244 -0.098975 0.124136 
0.043351 -0.051232 0.228659 
-0.394749 -0.323111 0.103360 
-0.134188 -0.247762 0.256250 
0.113191 -0.192299 0.192513 
0.267776 0.127539 -0.083443 
0.186765 0.071899 0.124427 
-0.124263 -0.007825 -0.444477 
0.374876 0.222980 0.015485 
-0.083087 0.013515 0.113533 
-0.264345 -0.445071 -0.102112 
0.238510 0.439870 -0.107694 
0.032059 0.053795 -0.229006 
-0.088512 -0.333816 0.142410 
-0.412292 -0.328251 0.058413 
0.115031 -0.185647 0.122770 
0.020463 0.026156 -0.083796 
-0.120837 -0.116502 0.328229 
0.259877 0.449906 -0.134437 
-0.043694 -0.144949 0.337234 
0.028338 -0.297209 0.178067 
0.294650 0.146740 0.100369 
0.000738 0.007480 -0.069562 
0.213895 0.140957 0.090016 
0.093904 -0.097549 -0.144769 
0.076136 -0.155559 0.297426 
-0.095402 0.002404 -0.416410 
-0.118733 -0.288516 0.154533 
-0.035110 -0.241815 0.108294 
-0.044620 0.033493 0.015221 
0.286243 0.133702 -0.090869 
-0.025174 -0.186306 -0.297861 
0.038204 -0.064434 0.246173 
0.309879 0.101082 0.021613 
-0.489683 -0.361893 -0.042718 
0.021772 -0.158139 -0.247184 
0.203472 -0.063554 -0.033880 
-0.156568 -0.076617 0.163973 
-0.259194 -0.490637 -0.088496 
0.068820 -0.253521 0.212445 
-0.083320 -0.038315 -0.431429 
0.005571 -0.254071 0.322338 
-0.014871 0.041470 0.118112 
-0.136072 -0.125552 0.322387 
0.302989 0.124431 0.062464 
0.343433 0.464380 -0.036784 
-0.407263 -0.325950 0.075947 
0.043639 -0.263936 0.147672 
0.295414 0.121113 -0.056567 
0.018952 0.013863 -0.082408 
-0.054377 -0.019340 -0.338498 
0.305683 0.470164 -0.031814 
0.298844 0.278799 0.022450 
-0.125070 -0.122295 0.142297 
-0.071861 -0.292353 0.300591 
0.172437 -0.067260 -0.145533 
0.117095 -0.190120 0.142701 
-0.026009 -0.057133 -0.083556 
-0.396304 -0.319597 0.064048 
-0.064176 -0.174904 0.349773 
0.260074 0.014783 0.027913 
0.163888 -0.040959 -0.200560 
-0.127615 -0.087223 0.302555 
0.118837 0.044591 0.093412 
0.242629 0.200531 -0.082830 
-0.166998 -0.352966 0.050869 
-0.249439 -0.171747 0.156773 
0.274077 0.423571 -0.098845 
0.302118 0.296816 -0.044190 
-0.099613 -0.073508 0.010673 
0.263148 0.097223 -0.101143 
0.378940 0.369097 -0.061314 
-0.178348 -0.190755 0.299692 
-0.096640 -0.075012 0.023183 
0.100984 -0.169851 0.239577 
-0.118789 -0.101575 0.322976 
0.261361 0.039833 0.060433 
-0.020207 -0.208972 -0.366728 
-0.437994 -0.382726 0.063240 
-0.169167 -0.392370 0.086910 
-0.062587 -0.061940 -0.042968 
0.120548 -0.171237 0.012280 
0.392260 0.269266 0.042417 
-0.065624 -0.217388 -0.384596 
0.366786 0.259834 -0.014950 
-0.120549 -0.350400 0.128324 
-0.008074 -0.168222 -0.283981 
0.279601 0.463345 -0.019309 
0.176153 0.174271 -0.094897 
0.275906 0.306061 -0.032389 
-0.121501 -0.036684 0.125385 
0.117511 -0.146694 0.185529 
-0.154558 -0.393235 0.076061 
0.173380 0.044261 -0.191059 
-0.048138 -0.018645 -0.305104 
0.202876 0.019896 0.079000 
-0.025940 -0.002984 0.167784 
0.163112 0.120368 -0.138915 
0.043363 -0.099205 -0.213241 
-0.187899 -0.185854 0.293784 
0.153737 -0.116248 -0.004769 
-0.198503 -0.224282 0.205270 
-0.359624 -0.283761 0.137905 
-0.230737 -0.147949 0.197471 
0.103025 -0.204809 0.063960 
0.010904 0.062470 -0.165642 
0.191532 0.009922 0.077829 
-0.262365 -0.242808 0.190806 
-0.097742 -0.301023 0.219936 
0.310577 0.347627 0.028712 
-0.193834 -0.187892 0.267974 
-0.062426 -0.019894 -0.396574 
0.122564 -0.019207 0.126987 
0.153181 -0.102955 0.116073 
-0.133582 -0.166770 0.345278 
-0.481785 -0.393703 -0.006490 
-0.312059 -0.263921 0.166870 
0.268868 0.029586 -0.108105 
-0.123357 -0.253764 0.281371 
-0.226600 -0.434578 -0.029488 
0.082977 -0.011112 0.152248 
-0.052691 -0.161198 0.005248 
0.045550 -0.198155 0.022530 
0.066666 -0.214600 0.037476 
0.272472 0.409412 -0.101552 
0.200367 0.115576 0.088808 
0.057661 -0.083379 -0.117084 
0.003732 -0.029389 0.231830 
-0.014085 0.029693 -0.298322 
0.126866 -0.140582 0.167313 
-0.193441 -0.172803 0.267649 
-0.196461 -0.165573 0.285961 
-0.317886 -0.321900 0.102498 
-0.085054 -0.324393 0.244730 
0.117317 -0.171726 0.158863 
0.318571 0.257622 -0.047728 
0.027207 0.105286 -0.096759 
0.156303 0.039135 0.102702 
-0.147150 -0.215580 0.323728 
0.251380 0.232248 0.004044 
-0.012108 -0.195645 0.014911 
0.231311 0.230384 -0.019141 
0.095911 -0.126187 -0.225894 
-0.166228 -0.130009 0.296319 
-0.094732 -0.036230 0.009524 
-0.045800 -0.149843 0.001139 
0.206532 0.173253 0.006653 
0.008571 0.047117 -0.116992 
-0.026857 -0.238808 0.330756 
0.064679 -0.004077 0.157302 
0.096671 -0.072888 0.186573 
0.290967 0.423093 0.034224 
-0.108824 -0.049779 0.019453 
0.385307 0.301692 0.097996 
0.027073 0.056764 -0.042759 
-0.057460 -0.324612 0.250774 
0.128757 0.177559 -0.019482 
0.377772 0.228275 0.016957 
0.242139 0.401489 -0.051676 
0.292222 0.055430 -0.075810 
-0.490198 -0.362989 -0.042274 
-0.033940 0.006335 -0.230949 
0.293969 0.320606 -0.065694 
0.011440 0.075637 -0.107566 
0.040308 -0.090548 0.287055 
0.028705 0.014342 -0.106302 
0.011420 -0.192738 -0.298125 
0.117484 -0.178779 0.194602 
0.315519 0.302503 0.082993 
-0.044349 -0.218281 -0.326274 
0.158362 -0.094365 0.103495 
-0.028696 0.021919 -0.209584 
-0.412537 -0.357265 0.068707 
-0.062997 -0.012171 -0.307941 
-0.009262 0.052882 0.013174 
0.179924 -0.042530 0.075628 
-0.225570 -0.416687 0.024244 
0.251146 0.194213 0.075415 
0.108147 -0.066381 0.159682 
0.062904 -0.017292 0.165700 
-0.141928 -0.099655 0.311855 
-0.313434 -0.306348 0.162032 
0.408158 0.375731 0.026278 
0.153135 -0.140278 0.048808 
0.108178 -0.184118 0.176322 
0.049354 -0.110165 -0.194409 
0.325597 0.136929 -0.017330 
0.316224 0.451230 -0.017570 
-0.052542 -0.031009 -0.046212 
0.281713 0.474089 -0.061848 
-0.204532 -0.151741 0.151740 
0.099142 -0.147481 0.251874 
-0.168820 -0.220931 0.236447 
-0.274263 -0.188906 0.160841 
0.026190 -0.270306 0.290825 
0.068952 -0.109839 -0.243138 
-0.085743 -0.021126 -0.000093 
-0.396366 -0.353484 0.096950 
0.045706 0.026843 -0.180242 
-0.032527 -0.176140 0.004631 
-0.473392 -0.375618 -0.046303 
-0.229235 -0.462046 -0.015595 
-0.099609 -0.006626 -0.408788 
0.046090 -0.268218 0.294295 
0.082876 -0.006758 0.145263 
-0.266317 -0.257930 0.187396 
-0.035692 -0.317530 0.255532 
0.115151 -0.086085 -0.060228 
0.019888 0.092805 -0.082355 
-0.043933 -0.202755 -0.338174 
0.363852 0.357197 -0.069826 
0.349672 0.196669 0.090713 
-0.099432 -0.357729 0.107305 
-0.009209 -0.295142 0.289261 
-0.047718 -0.143836 0.341709 
0.060201 -0.273697 0.247211 
0.186684 0.167169 0.021742 
0.283630 0.454031 -0.121205 
0.042959 -0.260443 0.308205 
-0.193283 -0.108573 0.166854 
-0.192058 -0.205544 0.195302 
-0.470706 -0.400155 -0.008017 
-0.033426 0.036154 0.017181 
0.099362 -0.152196 0.247642 
0.358804 0.212294 0.085531 
0.049341 -0.156532 -0.035285 
0.217515 0.065186 -0.130789 
-0.214067 -0.202558 0.177293 
-0.030862 -0.245813 0.114738 
-0.233564 -0.226906 0.216014 
0.254823 -0.006001 -0.108555 
0.316425 0.371951 0.054239 
-0.042832 -0.038984 0.263889 
-0.034028 -0.034715 -0.072197 
0.124377 -0.038116 0.139951 
0.147849 -0.085508 -0.126999 
-0.336664 -0.256816 0.135157 
-0.021425 -0.282455 0.105957 
-0.013183 -0.117661 0.319986 
0.303351 0.131053 0.073047 
-0.019411 -0.133158 -0.045397 
0.153694 -0.063352 -0.196364 
0.205807 0.492345 -0.109901 
0.169262 -0.109816 0.011143 
0.219245 -0.051212 -0.094089 
-0.065335 -0.033937 0.255504 
0.367517 0.449033 0.003691 
0.106620 0.071998 -0.179636 
-0.211336 -0.437386 -0.014609 
-0.128671 -0.388745 0.046437 
-0.299604 -0.291360 0.173482 
-0.444856 -0.404864 -0.027199 
0.302983 0.155993 -0.057086 
0.118193 -0.100659 0.176066 
-0.280099 -0.463415 -0.055150 
0.348652 0.312909 0.096353 
0.219905 0.196765 0.000170 
0.334296 0.460259 -0.019223 
-0.416514 -0.373195 0.028800 
0.218112 -0.045520 -0.032956 
-0.058567 -0.236432 0.340854 
0.217433 0.063602 0.081605 
-0.148681 -0.119279 0.142452 
0.046617 -0.248105 0.290883 
-0.044100 -0.296718 0.292225 
0.071634 -0.255003 0.233283 
0.311148 0.127329 0.069808 
0.225410 0.050587 0.078257 
0.107508 0.111333 -0.167818 
-0.104918 -0.196062 0.141945 
-0.307304 -0.292121 0.170836 
-0.216565 -0.132521 0.246518 
0.307839 0.422316 0.039876 
0.177679 0.101633 -0.139322 
-0.166531 -0.234731 0.242968 
0.286662 0.338501 -0.007976 
0.368794 0.322980 -0.026375 
-0.009117 -0.324191 0.204923 
-0.075767 -0.037469 0.252899 
-0.035712 0.039851 0.008505 
-0.313064 -0.262951 0.118303 
0.052396 -0.201481 0.307139 
0.341220 0.327316 -0.075338 
0.375234 0.364716 0.077875 
0.359188 0.337506 -0.058825 
0.166188 -0.017137 0.090751 
-0.005379 -0.179992 -0.005059 
0.163749 -0.096689 0.076363 
-0.112744 -0.272082 0.216338 
-0.123368 -0.079861 0.006561 
0.278987 0.241740 0.024033 
0.077121 0.108770 -0.156742 
0.010974 0.054856 -0.232133 
0.278957 0.413488 -0.104295 
0.316534 0.411572 -0.095557 
-0.228297 -0.192955 0.247895 
0.077064 -0.090917 -0.235581 
-0.116943 -0.123396 0.122732 
-0.063621 -0.032476 -0.366568 
-0.043440 -0.135578 -0.037119 
-0.190861 -0.193990 0.163756 
0.238373 -0.032336 -0.028117 
0.139587 0.080487 0.089591 
0.058237 -0.191433 -0.005084 
-0.132235 -0.061415 0.261257 
0.409569 0.381147 0.015256 
0.229537 0.199990 0.030181 
0.386835 0.358984 -0.014147 
-0.015139 -0.290095 0.105262 
0.036067 -0.108609 -0.230147 
0.286686 0.262951 0.022326 
-0.060188 -0.263557 0.332803 
-0.040937 -0.010612 -0.281716 
-0.098604 -0.086744 0.015760 
-0.041920 0.044571 0.051910 
-0.046373 -0.261175 0.337738 
0.310955 0.126215 0.033041 
0.280591 0.182331 0.095911 
-0.163691 -0.074462 0.182161 
0.261544 0.239499 -0.025182 
-0.239617 -0.220425 0.229511 
-0.071753 -0.025250 0.233135 
0.413819 0.299473 0.064425 
-0.226524 -0.202306 0.134658 
0.276212 0.014687 -0.030057 
-0.116440 -0.092525 0.075385 
0.276820 0.476454 -0.121302 
-0.166044 -0.130929 0.137242 
-0.061306 0.020193 -0.291692 
0.116228 -0.083997 0.197623 
-0.160994 -0.099439 0.158999 
0.326074 0.154176 -0.024272 
0.278263 0.351992 0.010377 
0.392611 0.255489 0.037731 
0.314760 0.130089 0.023750 
0.050877 -0.277369 0.254281 
-0.291622 -0.267267 0.179441 
-0.230849 -0.186475 0.241425 
-0.263801 -0.484530 -0.126949 
-0.084691 -0.114462 0.329735 
0.017283 0.077909 -0.203850 
-0.047979 -0.276733 0.088722 
0.029981 -0.168180 -0.275455 
0.050006 0.054608 0.094195 
0.140664 -0.083983 -0.169081 
-0.015759 0.053112 0.043472 
0.243966 0.432633 -0.104970 
0.197927 -0.001790 0.055553 
-0.407744 -0.338955 0.092973 
0.146412 -0.157925 0.073412 
-0.041668 -0.029476 0.236223 
-0.063555 -0.065880 0.305915 
-0.075101 -0.033902 -0.371751 
-0.093941 -0.129270 0.063732 
0.247788 0.405588 -0.064087 
0.075290 0.083005 0.045680 
0.147392 0.114466 -0.167204 
0.167510 -0.099614 0.097350 
-0.060293 -0.308139 0.273680 
0.293964 0.167723 -0.072344 
-0.120474 -0.078414 0.289609 
-0.062184 -0.285581 0.299154 
-0.029182 -0.301215 0.085538 
-0.096638 -0.354527 0.078992 
-0.183987 -0.369411 0.058968 
0.393255 0.434013 0.039490 
0.105679 -0.037557 -0.182664 
0.169793 0.126726 -0.132856 
0.027272 0.111939 -0.095486 
-0.049897 -0.026553 -0.041274 
0.293332 0.078466 -0.058916 
0.037921 -0.095881 -0.098910 
0.152717 -0.124518 0.122403 
0.340141 0.238358 0.106060 
-0.107836 -0.068573 0.295632 
-0.026914 0.003355 -0.047551 
0.017897 -0.276039 0.124013 
0.091449 -0.209712 0.288175 
-0.020510 -0.317473 0.249576 
-0.436776 -0.384507 0.030132 
0.227462 0.163322 0.072518 
-0.038801 -0.122301 0.327006 
0.323096 0.159801 -0.055092 
-0.035542 -0.075026 0.300500 
-0.217780 -0.457241 -0.020385 
-0.043426 -0.008022 -0.259946 
0.206656 0.173744 0.000463 
0.186968 0.099993 0.087369 
0.263312 0.240466 -0.003105 
-0.191403 -0.187007 0.170637 
-0.209572 -0.215973 0.266862 
0.284169 0.300776 -0.057298 
0.369758 0.232194 0.094448 
0.061753 -0.129516 -0.261530 
-0.252468 -0.480870 -0.027404 
-0.142734 -0.368062 0.038672 
-0.077543 0.023514 0.083641 
0.258620 0.431315 -0.020652 
-0.164631 -0.238895 0.304020 
0.015495 0.078575 -0.121708 
0.294654 0.063784 -0.049784 
0.052605 0.078225 0.036644 
0.227792 0.072345 -0.149137 
0.013262 -0.132760 0.323594 
0.039641 -0.285004 0.160090 
0.012721 0.060289 0.091458 
0.188787 0.139722 0.061074 
0.017334 -0.162061 -0.207208 
-0.041160 -0.189549 0.036105 
0.201154 0.156067 0.011183 
0.300219 0.420447 -0.105435 
-0.180605 -0.148850 0.307463 
0.138426 0.179570 -0.084631 
0.281553 0.212656 0.079556 
0.193867 0.054483 0.092459 
-0.281230 -0.457720 -0.067801 
0.283266 0.178196 0.104916 
0.008708 0.015550 -0.124374 
-0.127980 -0.188358 0.340515 
0.064061 0.132585 -0.030510 
-0.164680 -0.091055 0.271587 
-0.281506 -0.490939 -0.077393 
0.309579 0.226916 0.094282 
0.402957 0.216429 0.033009 
0.158520 0.135259 0.059951 
-0.111949 -0.214775 0.340691 
-0.178675 -0.193452 0.172429 
-0.079250 -0.002769 -0.321659 
0.259148 0.235977 -0.029587 
-0.170547 -0.235373 0.224952 
-0.034419 -0.008236 -0.065511 
-0.085046 -0.026924 -0.015240 
-0.049068 -0.158685 0.005932 
0.290399 0.255131 0.077441 
0.122179 -0.189687 0.050015 
-0.369964 -0.341906 0.092483 
0.315780 0.160279 0.093385 
0.094131 0.129281 -0.147332 
-0.018510 -0.271370 0.090972 
0.115528 -0.059176 0.164537 
0.058232 -0.147097 -0.218381 
-0.081139 -0.032297 0.208213 
-0.089567 -0.341238 0.073934 
-0.039198 -0.011112 -0.306308 
0.190510 -0.055969 -0.153654 
-0.192072 -0.213725 0.231474 
0.017470 -0.181693 0.337653 
-0.094356 -0.123906 0.038131 
-0.094429 -0.002644 -0.355231 
0.049992 -0.075000 -0.113434 
0.065051 -0.137622 -0.057587 
-0.053431 0.002223 -0.366179 
-0.421149 -0.384371 0.024396 
0.088724 -0.059203 -0.196508 
0.033640 0.118628 -0.070961 
0.276767 0.012647 -0.062050 
0.010492 -0.128260 -0.067331 
-0.283022 -0.480408 -0.083357 
0.112363 -0.089446 0.178732 
0.180164 0.022414 -0.176485 
0.014332 -0.068729 -0.093199 
-0.013062 -0.195222 0.031448 
0.171168 0.088626 -0.142989 
0.149710 -0.113024 -0.018413 
-0.036579 -0.225427 -0.315354 
0.237773 0.218616 -0.032173 
0.337791 0.174664 0.066022 
0.240512 0.236246 -0.034829 
-0.033162 -0.004662 -0.264021 
-0.047159 -0.332513 0.099945 
0.075812 0.105395 -0.171210 
-0.104911 -0.183220 0.132957 
0.333013 0.222653 -0.039162 
-0.221538 -0.251275 0.173148 
-0.146695 -0.214233 0.326775 
0.105778 -0.026970 0.147254 
-0.088398 -0.124993 0.025181 
0.111008 0.165057 -0.111187 
0.203494 0.102235 -0.118768 
0.298286 0.464941 -0.008676 
0.077777 -0.078815 -0.220076 
-0.254632 -0.260877 0.176067 
-0.160227 -0.123596 0.304801 
-0.044524 -0.106084 0.331407 
0.375848 0.436296 0.023940 
-0.239869 -0.151064 0.236534 
-0.031898 -0.087867 0.312248 
0.052898 -0.129445 -0.071837 
0.028240 -0.211292 0.057981 
-0.073420 -0.048551 -0.030884 
0.402751 0.338586 0.056477 
0.223682 0.495387 -0.138115 
0.257763 0.428989 -0.113653 
0.217223 -0.029056 -0.009483 
0.170680 0.179522 -0.067244 
0.175327 -0.050378 0.089963 
-0.178485 -0.240458 0.279370 
-0.105485 -0.263805 0.162317 
-0.104604 -0.180172 0.143136 
0.014628 -0.240644 0.089143 
-0.182694 -0.363263 0.047046 
0.400657 0.331282 0.018581 
0.123048 -0.090350 -0.125662 
0.332296 0.325666 0.059558 
0.226519 -0.028248 0.016327 
-0.076347 -0.095769 -0.011090 
0.096076 -0.192768 0.019610 
-0.144661 -0.362565 0.024098 
0.139378 0.148931 0.044142 
-0.047031 0.035148 0.028316 
-0.014798 -0.230770 0.334426 
-0.008966 0.027971 0.134020 
0.007115 0.057021 -0.212479 
0.212033 0.013280 0.077217 
0.111777 -0.138588 0.216713 
-0.454826 -0.392752 0.019243 
-0.049460 -0.310544 0.091313 
0.032072 0.033981 -0.084732 
0.253350 -0.005793 -0.120550 
0.099627 -0.047011 -0.198035 
0.167801 0.186849 -0.035369 
0.054937 0.110950 -0.029951 
0.060865 0.009826 -0.170801 
-0.077665 -0.344886 0.172736 
-0.043667 -0.011576 -0.324456 
-0.406208 -0.326433 0.060420 
0.267315 0.014013 -0.102502 
-0.202725 -0.198648 0.298257 
0.151869 -0.149927 0.065709 
0.097876 -0.159313 0.256859 
0.159194 -0.005966 0.103008 
-0.050340 -0.208969 -0.333118 
0.130644 -0.180562 0.093788 
-0.416186 -0.374263 0.076462 
-0.139007 -0.100348 0.309461 
0.030725 0.098302 -0.085344 
-0.076873 0.015542 0.061416 
-0.270733 -0.460932 -0.115624 
-0.233238 -0.202284 0.150563 
-0.102268 -0.158515 0.162336 
0.002208 -0.120950 -0.059781 
-0.065623 -0.025966 0.173169 
-0.122967 -0.184664 0.130334 
-0.159735 -0.393046 0.060296 
-0.295600 -0.212028 0.140944 
0.289559 0.464736 -0.009335 
0.064366 -0.174157 0.298237 
0.405070 0.306685 0.035970 
-0.127576 -0.083100 0.293437 
-0.050006 -0.327544 0.126304 
-0.041992 0.007376 -0.336115 
0.290742 0.323912 -0.009072 
0.406878 0.353386 0.044534 
0.019398 -0.279926 0.292483 
-0.058223 -0.005108 0.177890 
-0.107070 -0.270111 0.267034 
0.348887 0.427538 -0.074847 
-0.063233 -0.021650 -0.318084 
-0.000604 -0.206298 -0.266893 
-0.489051 -0.396397 -0.028134 
0.084426 -0.199101 0.277253 
-0.108945 -0.291941 0.190791 
-0.034330 -0.201242 -0.392586 
-0.290090 -0.482413 -0.100801 
-0.387902 -0.314154 0.139897 
-0.200473 -0.183389 0.172146 
0.053376 -0.138760 -0.053781 
-0.006227 -0.306207 0.265775 
0.220654 0.064714 -0.152132 
0.242617 0.186473 -0.090758 
-0.216774 -0.222684 0.195262 
-0.317623 -0.313355 0.152609 
0.032261 0.107310 -0.166153 
-0.475872 -0.398842 -0.022016 
0.118647 -0.084168 -0.137441 
0.025172 -0.301072 0.235200 
-0.060936 -0.084953 -0.036268 
0.038857 -0.277656 0.284370 
-0.133914 -0.198193 0.179520 
0.299241 0.285625 0.061545 
0.305977 0.240185 -0.053692 
0.192365 0.048268 0.096539 
0.022234 -0.066912 0.266121 
-0.055622 -0.343831 0.146389 
-0.082539 -0.032860 -0.402753 
-0.078369 -0.358215 0.092928 
0.106465 -0.159817 0.222178 
0.381397 0.377497 0.083009 
-0.278598 -0.471623 -0.053499 
-0.259884 -0.262988 0.149490 
0.016525 -0.065490 0.273059 
0.045169 -0.218853 0.045861 
0.333332 0.329690 0.088198 
0.149142 0.058660 -0.173251 
0.183045 0.094563 -0.149228 
0.205255 -0.076412 -0.104936 
-0.281666 -0.439524 -0.129327 
-0.328720 -0.261507 0.134069 
-0.245011 -0.243304 0.161193 
-0.209087 -0.232759 0.241487 
0.369707 0.343108 -0.037360 
-0.080821 -0.290005 0.103294 
0.003682 0.058079 -0.201836 
-0.459872 -0.367692 0.028914 
0.028716 -0.274352 0.278966 
0.087681 -0.001955 0.138417 
-0.194649 -0.156397 0.169233 
0.276435 0.151802 -0.077394 
-0.041846 -0.301493 0.072444 
-0.031581 -0.190193 -0.326297 
0.404886 0.343381 0.044177 
-0.006341 -0.133547 -0.059690 
-0.254361 -0.455450 -0.110826 
0.271803 0.081308 0.040256 
0.143877 0.096828 -0.162575 
-0.016584 -0.324524 0.241758 
-0.211526 -0.396034 0.015170 
0.276955 0.387494 -0.091296 
-0.034641 -0.263026 0.338866 
0.049014 0.138426 -0.103079 
0.317560 0.120105 -0.022277 
0.195271 0.151555 -0.120705 
-0.442518 -0.346505 0.057843 
0.367595 0.438018 -0.064688 
-0.017447 0.008795 -0.069171 
0.156093 0.186930 -0.056453 
-0.119207 -0.175096 0.348627 
0.188384 -0.069852 -0.015418 
-0.108588 -0.316169 0.104570 
0.031322 -0.080306 0.270287 
0.379001 0.441861 -0.003936 
0.016560 0.039054 -0.097089 
-0.171658 -0.147034 0.286900 
-0.066809 -0.337589 0.126535 
0.011856 -0.289112 0.123778 
0.256243 -0.029728 -0.058710 
0.009511 0.060735 -0.213102 
0.312315 0.473044 -0.046754 
-0.089880 -0.012808 0.120149 
0.207048 0.191432 -0.013646 
0.330971 0.241808 -0.041418 
-0.093391 -0.009232 0.143546 
0.392651 0.383114 0.083396 
0.130731 -0.086307 -0.188944 
-0.238582 -0.475135 -0.040016 
0.415363 0.421715 0.027714 
-0.071061 -0.005629 -0.301394 
0.308047 0.097095 -0.012122 
0.142328 -0.118774 -0.035219 
0.303772 0.431923 0.036532 
0.103076 0.172545 -0.106056 
0.068225 0.014944 -0.172481 
0.274851 0.071358 -0.107153 
0.267775 0.130619 0.090762 
0.392639 0.377177 0.073462 
0.381240 0.303567 -0.011500 
0.130928 -0.162003 0.035565 
0.037653 -0.277232 0.278290 
0.135153 0.146161 0.024124 
-0.024406 -0.302487 0.265540 
-0.378744 -0.305622 0.119793 
0.321936 0.153495 -0.048113 
-0.478863 -0.390745 -0.037938 
-0.246133 -0.465104 0.026014 
0.282340 0.125520 0.092295 
0.078965 -0.241471 0.225457 
-0.121593 -0.256402 0.216281 
0.186594 -0.045904 0.063048 
0.150656 0.137407 0.070573 
-0.133090 -0.123975 0.327540 
0.002319 -0.037213 0.214386 
0.282447 0.305136 -0.036143 
0.289433 0.292768 -0.055742 
-0.073112 -0.010370 -0.296070 
0.306276 0.215149 -0.088248 
-0.039951 -0.231332 0.110911 
0.180236 -0.078115 0.045971 
0.240152 0.001820 -0.126267 
0.281866 0.024149 -0.064062 
0.158824 0.172187 0.004423 
0.118478 0.154416 0.003043 
0.097440 0.079338 0.079701 
0.268386 0.092441 0.064112 
0.277168 0.440252 -0.110990 
0.268284 0.184246 0.100926 
0.312846 0.122215 -0.044568 
0.274647 0.331717 -0.022786 
-0.007692 -0.079511 0.294031 
-0.009920 0.047650 -0.219391 
0.204949 -0.022555 -0.161835 
-0.095710 -0.299771 0.100720 
-0.091878 -0.305933 0.281839 
0.274911 0.439950 0.020975 
0.236898 -0.003957 0.038920 
0.191940 -0.050526 0.041583 
0.312907 0.472808 -0.047800 
-0.116139 -0.103633 0.047739 
-0.001944 -0.320133 0.186932 
0.017163 -0.107069 -0.083042 
0.024160 -0.121693 -0.254440 
0.176659 -0.025692 0.069311 
0.030138 -0.127336 -0.209988 
-0.053180 -0.244298 -0.368660 
0.226761 0.192861 -0.071209 
0.413649 0.387624 0.003425 
0.258086 0.242435 0.002847 
0.032829 -0.051549 -0.141600 
0.047299 -0.124146 -0.262269 
0.124326 -0.167219 0.023845 
0.215334 -0.049424 -0.071965 
0.009541 -0.172620 -0.246553 
0.181045 -0.011348 -0.150756 
0.091687 -0.197571 0.029057 
-0.060524 0.025454 0.026212 
-0.020658 -0.181697 0.337561 
-0.002860 0.066415 -0.004537 
0.195401 0.193264 -0.010046 
0.160181 -0.126591 0.055564 
0.267749 0.445323 -0.019376 
0.111503 0.011729 -0.173116 
0.279983 0.061812 -0.101509 
-0.107747 -0.049113 0.134670 
0.222107 0.074389 -0.147973 
0.065604 0.137357 -0.044999 
-0.163656 -0.142126 0.158705 
0.072190 -0.085321 -0.238726 
-0.159925 -0.232781 0.212987 
0.139735 -0.101651 -0.052051 
0.272717 0.089101 -0.096555 
0.276590 0.145883 0.106999 
0.346617 0.193135 -0.036395 
-0.122403 -0.051697 0.088938 
-0.028704 -0.300533 0.089460 
-0.386908 -0.318112 0.077082 
0.237047 0.165593 0.074977 
-0.054956 0.003963 -0.367156 
-0.024728 -0.249158 0.097907 
0.047533 0.075131 -0.199757 
0.344752 0.376550 0.070998 
-0.026715 -0.246978 0.093364 
-0.229350 -0.226205 0.173625 
-0.031640 -0.168668 0.351448 
-0.277890 -0.429572 -0.006048 
0.296334 0.356923 -0.088344 
-0.035087 -0.029780 0.247139 
0.292086 0.176853 0.089597 
-0.059681 0.008675 -0.363794 
-0.137449 -0.384336 0.065721 
0.399293 0.281477 0.058792 
-0.463310 -0.398934 -0.041411 
0.220040 0.110667 -0.097577 
0.295622 0.092159 -0.002248 
0.371247 0.254663 -0.013308 
-0.028456 -0.224596 -0.305508 
0.115752 0.149146 -0.137170 
0.360608 0.436682 -0.057510 
-0.086356 -0.057004 -0.011043 
-0.020908 -0.002831 -0.059453 
0.429207 0.415842 0.010901 
0.273901 0.173153 0.109131 
-0.098480 -0.141587 0.059334 
0.314085 0.249672 0.095939 
0.210518 0.020171 -0.155342 
-0.040217 -0.039815 -0.075614 
0.070132 0.038417 -0.162415 
0.227817 0.156199 -0.097041 
0.392279 0.390488 -0.018691 
-0.230672 -0.458444 -0.042917 
0.307072 0.250499 0.086207 
0.017234 0.045654 -0.254151 
0.006778 0.081515 -0.141333 
-0.070816 -0.321487 0.191325 
-0.022043 0.039832 0.123412 
0.096037 0.046556 0.100074 
0.350362 0.179188 0.005103 
-0.076615 -0.037478 0.247847 
-0.304278 -0.259198 0.171035 
0.263036 0.087683 0.073899 
-0.174851 -0.176435 0.138447 
0.027909 0.100736 -0.151019 
0.159690 -0.016201 0.134374 
0.254313 0.461599 -0.072785 
-0.217643 -0.418928 0.029303 
0.178010 0.171465 -0.097103 
0.242928 0.231862 -0.007638 
-0.185438 -0.126790 0.264362 
0.071985 0.048214 0.105280 
0.095486 -0.175223 0.270628 
0.228315 0.047144 -0.124068 
-0.414081 -0.348427 0.085378 
-0.168511 -0.352874 0.092691 
0.317814 0.230502 -0.042050 
-0.045760 0.036780 0.049101 
0.159822 -0.100922 -0.017147 
-0.082354 0.022633 -0.443059 
0.012490 -0.094290 0.295128 
-0.091816 -0.000664 -0.383869 
-0.205767 -0.427794 0.019694 
0.336701 0.283482 -0.047948 
0.041574 0.000078 -0.161738 
0.018737 -0.119268 -0.230276 
0.092890 -0.059460 -0.198566 
-0.477219 -0.399599 -0.032490 
0.088022 -0.099429 -0.059754 
-0.038000 0.042683 0.075311 
0.129664 0.142490 0.035046 
-0.032291 -0.269987 0.319999 
0.139748 0.103087 0.059657 
0.324308 0.132322 -0.025912 
-0.426322 -0.342141 0.045886 
0.128349 -0.049809 -0.194005 
0.345192 0.316713 -0.050417 
-0.132721 -0.097858 0.303642 
-0.090884 -0.169462 0.113894 
-0.428474 -0.397585 0.042225 
0.352644 0.444175 0.023864 
-0.003285 -0.171956 -0.259530 
0.265966 0.455720 -0.032384 
0.132143 0.174325 -0.102904 
0.389822 0.358316 -0.028750 
0.248179 0.426023 -0.083614 
0.092239 0.019909 -0.169477 
0.293801 0.299823 -0.015218 
-0.069452 -0.011526 -0.308309 
-0.054125 -0.001353 -0.261846 
0.395014 0.296794 0.074938 
0.169073 -0.083896 -0.014727 
0.222562 0.204174 -0.007235 
0.265389 0.397994 -0.047849 
-0.078562 -0.174906 0.068867 
-0.041316 -0.240852 0.122659 
-0.136099 -0.130384 0.131444 
0.180287 0.067984 -0.157195 
0.010429 -0.109927 0.303858 
-0.343896 -0.289465 0.157174 
-0.002982 -0.128708 0.318185 
0.061819 -0.125735 -0.177667 
-0.324552 -0.294519 0.168285 
0.275204 0.485955 -0.137317 
-0.185716 -0.122885 0.154427 
-0.215224 -0.406981 0.018722 
0.018222 0.041419 -0.144392 
-0.013300 -0.019517 0.214198 
0.209177 0.202054 -0.032304 
-0.274015 -0.274195 0.184997 
0.165443 -0.080344 -0.043274 
-0.060187 -0.264796 0.114931 
0.157379 0.165577 0.045348 
0.428665 0.409565 0.006002 
0.078998 -0.155687 -0.054937 
-0.186551 -0.177300 0.297746 
-0.147668 -0.143674 0.326072 
-0.023875 -0.286232 0.325269 
0.058222 0.141117 -0.093872 
0.161017 0.125994 -0.134754 
0.172877 0.138031 -0.118793 
0.040855 -0.079307 0.259641 
0.111693 -0.187949 0.042526 
0.286219 0.039887 -0.024705 
-0.086259 -0.173495 0.117133 
-0.230880 -0.429879 0.014884 
-0.013827 0.003692 -0.225905 
0.135380 -0.139693 -0.007085 
0.177654 -0.067964 0.071673 
0.008681 -0.067688 0.288335 
0.004106 -0.310303 0.168417 
-0.225378 -0.133534 0.182605 
-0.034377 -0.177885 0.342216 
-0.108826 -0.148524 0.112339 
-0.027138 0.042337 -0.272414 
-0.011131 -0.016156 0.224241 
-0.245146 -0.228096 0.212059 
0.199483 0.184547 -0.053352 
-0.169149 -0.084279 0.288024 
-0.027731 -0.008735 -0.249773 
-0.440697 -0.363932 0.070002 
0.203669 -0.038445 0.040815 
-0.052489 -0.084898 -0.055594 
0.228551 0.137544 0.104692 
0.009047 -0.281162 0.101085 
0.157707 -0.124475 0.063747 
-0.155648 -0.205127 0.184823 
-0.313222 -0.305257 0.119126 
0.040564 -0.158828 -0.228870 
0.002665 0.032829 -0.158813 
0.053573 0.140257 -0.092721 
-0.156974 -0.187336 0.311511 
0.292868 0.291459 -0.024863 
0.094830 0.041498 0.111736 
-0.279145 -0.254951 0.194645 
0.312719 0.370082 0.051846 
0.373230 0.441469 0.019319 
0.095677 -0.001166 -0.177934 
0.082068 -0.182849 0.280826 
0.255521 0.074925 0.058313 
-0.075249 -0.338438 0.120862 
0.272413 0.330840 -0.053393 
-0.136562 -0.225212 0.176268 
0.000364 -0.170759 0.322593 
-0.102147 -0.288645 0.234298 
0.336437 0.108394 -0.022127 
-0.224722 -0.247646 0.167329 
-0.049614 0.004052 -0.019291 
-0.111874 -0.321054 0.154658 
0.073390 0.078204 0.097353 
0.256872 -0.008546 -0.093070 
-0.042367 -0.198168 -0.399882 
-0.249518 -0.459503 -0.077019 
-0.405563 -0.323938 0.074216 
0.103156 -0.025189 -0.170304 
0.354689 0.336154 -0.033931 
0.162749 -0.081536 -0.137502 
0.433563 0.431091 0.017157 
-0.101135 -0.214028 0.135000 
-0.202524 -0.221993 0.252250 
0.024458 -0.069479 0.264716 
0.111019 -0.110101 -0.188203 
0.301828 0.109685 0.029299 
0.067398 -0.102082 -0.096874 
-0.047810 -0.005229 -0.261106 
-0.171224 -0.077590 0.183573 
0.293752 0.049236 -0.041695 
-0.053359 -0.023946 -0.045509 
0.033874 -0.307563 0.214466 
-0.075132 -0.082802 0.318381 
-0.040863 -0.318013 0.237325 
-0.090055 -0.005496 0.047185 
0.251818 0.165133 -0.097041 
0.096869 -0.207658 0.061756 
0.021752 -0.124281 -0.072667 
-0.084382 -0.237619 0.147251 
0.223861 -0.031118 0.015388 
0.398164 0.261621 0.050942 
0.324250 0.376993 -0.100072 
-0.046570 -0.019677 0.220592 
-0.115534 0.003919 -0.467109 
0.109432 0.132676 0.020736 
-0.137237 -0.339393 0.130705 
0.120469 0.081481 0.090794 
-0.057599 -0.079167 0.306764 
-0.021546 -0.092262 0.293759 
0.015487 -0.156156 -0.061225 
0.069399 -0.112195 -0.252958 
-0.061387 -0.155315 0.007353 
-0.270743 -0.439653 -0.040934 
-0.059341 -0.329569 0.073763 
0.308226 0.312824 0.041461 
0.272999 0.190209 0.098533 
0.080208 -0.244565 0.226304 
-0.016639 -0.017705 0.211851 
-0.293750 -0.215345 0.147282 
-0.147366 -0.328938 0.076265 
-0.088776 -0.038106 0.173158 
-0.103217 -0.297700 0.238682 
0.012100 0.010525 -0.130690 
-0.450438 -0.394489 -0.047668 
-0.092108 -0.354604 0.089800 
-0.073754 -0.176811 0.077331 
-0.065829 -0.287073 0.312111 
-0.291265 -0.479853 -0.069363 
0.199813 0.126925 0.076787 
-0.080964 -0.154987 0.017264 
-0.095390 -0.358507 0.073601 
0.286461 0.486329 -0.049136 
-0.222609 -0.201735 0.139303 
0.015859 0.017915 0.147497 
-0.251244 -0.460240 -0.126816 
-0.202359 -0.106379 0.220630 
0.145735 -0.138418 0.140363 
0.235177 0.217345 -0.035272 
0.093732 -0.113855 -0.223353 
0.270466 0.386379 0.011838 
0.209136 0.481705 -0.120429 
-0.108859 -0.132083 0.104482 
0.123611 -0.077731 -0.076954 
0.168489 -0.081093 -0.061552 
-0.205209 -0.116341 0.229081 
0.311993 0.398142 -0.103583 
-0.174819 -0.096674 0.266141 
0.035173 -0.237939 0.107597 
-0.230379 -0.222731 0.170007 
-0.039477 -0.320622 0.280656 
-0.087570 -0.120590 0.005709 
-0.031986 -0.248125 0.096001 
-0.122380 -0.098744 0.322213 
-0.037231 -0.033464 0.260316 
0.296723 0.039614 -0.041442 
-0.097634 -0.308182 0.184305 
-0.196817 -0.407336 0.060936 
-0.043681 -0.032465 -0.066728 
0.189744 0.119929 0.059925 
0.301824 0.241757 -0.053121 
-0.320402 -0.289287 0.165480 
-0.264994 -0.488763 -0.118829 
0.167171 0.177264 -0.003507 
-0.151335 -0.152015 0.128137 
-0.063505 0.006241 0.133403 
-0.071096 -0.129485 0.345587 
-0.285468 -0.285780 0.159704 
0.243708 0.427272 -0.094269 
0.287851 0.463876 -0.024023 
-0.159746 -0.097690 0.277113 
-0.039959 0.027541 0.122691 
0.285180 0.288400 -0.022264 
0.053677 -0.159686 -0.041356 
0.258773 0.081875 0.059474 
0.153227 -0.003168 0.099865 
-0.092495 0.005709 0.069346 
-0.010766 -0.032537 0.257630 
-0.285774 -0.201797 0.148030 
0.271213 0.421719 0.000073 
0.042192 0.128705 -0.158635 
-0.051465 0.033264 0.097910 
0.063858 -0.263620 0.200245 
0.246232 0.441895 -0.078300 
-0.041815 -0.309045 0.297775 
-0.386976 -0.336262 0.110148 
0.304232 0.119183 0.035617 
0.085754 -0.201938 0.063391 
-0.080032 -0.006203 -0.339456 
0.143887 -0.091301 -0.165608 
-0.082358 0.004864 -0.384757 
-0.058827 -0.336441 0.125512 
0.164830 -0.077705 -0.057460 
0.247362 0.475289 -0.072828 
0.092055 -0.226350 0.239805 
-0.147313 -0.229028 0.196858 
-0.427774 -0.339416 0.067091 
0.026786 -0.083818 0.280962 
0.256859 0.168919 -0.094404 
-0.158037 -0.200231 0.320665 
-0.088977 -0.038024 0.191523 
0.045146 -0.061394 0.244727 
-0.216389 -0.409239 0.008280 
0.350793 0.391481 -0.077110 
-0.001659 0.055847 0.000436 
0.286846 0.394379 0.019142 
-0.083650 -0.012040 0.003168 
0.155917 -0.080760 -0.097330 
-0.162422 -0.409805 0.047421 
0.379952 0.222850 0.047710 
0.257101 0.065209 0.041104 
0.030727 -0.278995 0.292539 
0.032833 0.120466 -0.119166 
-0.107563 -0.192916 0.346226 
-0.073546 -0.161088 0.044409 
-0.230781 -0.154973 0.180406 
0.191922 0.164461 0.031950 
-0.086808 -0.024096 0.166024 
-0.098041 -0.301472 0.103403 
0.092335 -0.014758 -0.168507 
0.027620 0.105896 -0.077418 
-0.286901 -0.461675 -0.112280 
-0.061772 -0.270523 0.113639 
-0.230785 -0.127738 0.208949 
-0.467754 -0.366973 0.006692 
0.260894 0.417612 -0.001325 
-0.154579 -0.176969 0.153614 
-0.089984 -0.295180 0.213934 
-0.048198 -0.264281 0.334507 
-0.009891 0.057199 0.013810 
-0.055346 -0.136810 -0.000070 
-0.044527 -0.191176 -0.383879 
-0.002638 -0.311920 0.257411 
-0.084737 -0.353006 0.072128 
0.387395 0.312834 0.008231 
0.278927 0.106518 0.081818 
0.296053 0.084628 -0.029552 
0.139232 -0.001240 0.130666 
0.154584 -0.114981 -0.011759 
0.095201 0.100229 0.060035 
0.099312 0.044477 -0.171810 
-0.082670 -0.151713 0.034714 
-0.200373 -0.116522 0.245126 
0.036416 -0.269421 0.127486 
-0.072030 -0.159820 0.026215 
0.155511 0.077356 0.106138 
-0.333130 -0.297580 0.151726 
0.075887 -0.108665 0.247606 
0.186406 0.115696 -0.126929 
0.009310 -0.168831 -0.243649 
-0.040709 -0.326848 0.131579 
0.043560 0.120619 -0.141041 
0.075089 -0.251495 0.232262 
-0.179735 -0.389458 0.073254 
0.043600 -0.246285 0.113703 
0.079637 0.119226 0.019402 
-0.040959 0.009172 -0.027313 
0.297976 0.059008 -0.035035 
-0.023989 0.041730 0.083929 
0.388122 0.251554 -0.006164 
-0.065313 -0.270115 0.104470 
0.384675 0.434487 -0.027998 
0.091312 0.154090 -0.038422 
0.299541 0.049088 -0.065852 
-0.067454 -0.173556 0.056503 
0.112054 0.164069 -0.016657 
0.249294 -0.005172 -0.129738 
0.374614 0.322932 -0.022348 
0.100441 -0.115527 -0.059292 
0.094586 0.163527 -0.076065 
0.115209 -0.106291 0.189316 
0.058681 -0.120430 -0.072068 
0.127326 -0.174173 0.029890 
0.268356 0.188789 -0.080415 
-0.133507 -0.386088 0.067628 
0.065859 -0.164877 -0.038548 
0.054242 -0.275062 0.213339 
0.038188 -0.289658 0.258581 
-0.038419 -0.015013 0.207782 
0.424991 0.423832 0.010190 
-0.046180 -0.244841 -0.356461 
-0.320651 -0.220840 0.154751 
0.049935 -0.156637 -0.225695 
-0.076060 -0.353499 0.117092 
-0.100193 -0.306524 0.067404 
0.376533 0.267715 -0.007418 
-0.230326 -0.136110 0.148383 
-0.175624 -0.152149 0.308726 
-0.122826 -0.383342 0.070858 
0.031940 -0.279265 0.137988 
0.017726 -0.010786 0.194234 
-0.009353 -0.022803 0.224279 
0.271706 0.014394 -0.109671 
0.185284 0.124546 0.065613 
0.096971 -0.136199 0.251755 
0.045660 0.082993 0.047747 
0.164708 0.093272 0.094387 
-0.023357 0.055980 0.057740 
-0.094396 -0.165215 0.111807 
-0.277822 -0.232565 0.126795 
0.136040 -0.157601 0.010928 
-0.076247 -0.272089 0.121022 
-0.421845 -0.331589 0.023933 
-0.113155 -0.239842 0.159552 
0.283343 0.266739 0.061613 
0.098471 -0.084811 -0.224719 
0.303806 0.327052 0.011446 
0.230898 0.435274 -0.099691 
-0.460811 -0.373162 0.038011 
0.252167 0.087123 -0.098429 
0.076480 -0.117507 0.258870 
-0.260315 -0.220782 0.204974 
-0.026588 -0.161826 -0.014399 
0.348239 0.420190 0.070278 
0.034094 -0.074120 0.261309 
0.281547 0.431683 -0.119408 
-0.203006 -0.088290 0.182298 
-0.074308 -0.022852 0.176248 
0.375807 0.221068 0.008564 
0.096339 -0.080165 -0.226687 
0.308402 0.354219 0.028030 
0.008103 -0.275318 0.303922 
0.135783 -0.070658 0.141061 
0.396210 0.437489 0.043221 
0.356836 0.417729 0.099275 
0.112089 -0.105423 0.169881 
0.269988 0.029046 0.004707 
0.202421 0.088028 -0.153094 
-0.061561 -0.328586 0.176795 
0.121017 -0.091287 -0.164506 
0.323606 0.184904 0.104799 
-0.209262 -0.191261 0.157854 
0.356082 0.186911 0.014106 
0.150880 0.059596 0.111061 
0.150511 -0.059877 0.114149 
0.272943 0.339813 -0.065185 
-0.209335 -0.408127 0.020163 
0.105589 -0.091182 -0.128892 
0.127494 -0.075279 0.159453 
-0.107984 -0.255556 0.165585 
0.262416 0.193286 -0.077735 
0.014098 0.049415 -0.245542 
-0.080292 -0.280671 0.105092 
0.308354 0.296921 0.065517 
-0.065178 -0.000933 -0.371046 
0.371684 0.343152 0.076420 
0.224575 0.214389 -0.018292 
