-0.086547 -0.187941 0.046581 
0.195157 0.201391 -0.090667 
0.022498 0.062452 -0.002411 
-0.139255 0.044133 0.009763 
-0.057992 0.104478 -0.015937 
0.251592 0.264117 -0.363358 
0.253927 0.165427 -0.268200 
0.256149 0.183941 -0.279951 
-0.121111 0.032271 -0.051315 
0.201108 0.387873 -0.156697 
0.141382 0.218403 -0.401576 
0.331294 0.233196 -0.113141 
-0.103248 -0.184531 0.098848 
-0.076179 0.111266 0.002637 
-0.060257 0.153772 -0.134131 
-0.153887 -0.001110 0.011745 
-0.013609 0.175633 -0.221138 
0.001130 -0.013535 -0.172129 
0.330020 0.292525 -0.282059 
0.235862 0.100485 -0.345113 
0.374160 0.275192 -0.157325 
-0.297999 -0.242675 0.264124 
0.063457 0.042738 0.034185 
-0.251193 -0.233145 0.011639 
0.154547 0.084042 -0.388938 
0.151882 0.305330 -0.123232 
0.109545 0.253786 -0.405913 
0.013112 0.402544 -0.187599 
0.011601 -0.017426 -0.084043 
-0.130245 -0.199159 0.144706 
0.162350 0.453108 -0.177798 
-0.165517 0.043831 -0.046441 
0.312376 0.197136 -0.374595 
0.111181 0.052843 -0.113207 
0.180579 0.141543 -0.491900 
-0.141514 -0.041441 0.052293 
0.036321 0.384552 -0.268150 
-0.003364 0.485601 -0.376425 
0.223887 0.352843 -0.260639 
0.174387 0.444663 -0.260797 
0.052196 0.035319 -0.108781 
0.144564 0.161141 -0.433903 
0.408841 0.347772 -0.128873 
-0.207379 -0.073016 0.032163 
0.282816 0.200238 -0.095739 
-0.076896 -0.028114 0.078128 
0.322763 0.224105 -0.268144 
-0.037145 0.452738 -0.199648 
-0.067049 -0.015871 0.058157 
-0.179858 -0.115536 0.112704 
0.204924 0.149431 -0.545985 
0.152214 0.164401 -0.128580 
-0.092720 -0.012730 -0.125608 
-0.147264 -0.044624 0.124302 
0.034559 0.200224 -0.136333 
0.228974 0.257454 -0.393807 
0.026045 0.116553 -0.002676 
0.130182 0.198380 -0.119210 
0.026867 0.258730 -0.228691 
0.139304 0.380086 -0.162227 
0.246002 0.252079 -0.387809 
0.096895 0.264372 -0.423544 
0.077651 0.042747 -0.013444 
0.074818 0.159192 -0.281915 
0.295313 0.209170 -0.290478 
0.088658 0.123258 -0.366414 
-0.261394 -0.172280 0.076977 
0.423643 0.312925 -0.117666 
0.079514 0.088922 -0.329131 
-0.203837 -0.101107 0.004010 
-0.047063 0.400778 -0.264728 
-0.159532 -0.113278 0.127635 
-0.237229 -0.089310 0.088819 
-0.206879 -0.051903 0.131582 
0.103209 0.280211 -0.145943 
0.192832 0.129125 -0.384089 
0.304560 0.212342 -0.157701 
0.298291 0.196693 -0.235501 
-0.063834 -0.017646 -0.115661 
0.392530 0.355159 -0.101416 
-0.120730 -0.167113 0.038468 
0.241435 0.105010 -0.419278 
0.403760 0.291192 -0.148056 
-0.224897 -0.311191 0.108193 
0.160840 0.401585 -0.228170 
0.126264 0.410123 -0.299261 
0.101208 0.072484 -0.138093 
0.058646 0.299719 -0.363856 
0.282556 0.328644 -0.107706 
0.176991 0.230679 -0.118498 
-0.002713 -0.009522 -0.183916 
-0.162432 0.091143 -0.060076 
-0.044553 0.217788 -0.072636 
0.406491 0.331635 -0.182138 
0.047988 0.365120 -0.403068 
0.035955 0.480123 -0.246150 
-0.094072 -0.186634 0.091987 
-0.001801 -0.054529 0.011764 
0.056000 0.172472 -0.315074 
-0.019002 0.079490 0.041221 
0.234572 0.342541 -0.257777 
0.239191 0.150721 -0.402324 
0.223342 0.431821 -0.199412 
-0.100145 0.146529 -0.056231 
0.148275 0.301247 -0.128269 
-0.031065 0.262002 -0.256855 
0.036466 -0.018776 -0.122943 
0.207285 0.096239 -0.428666 
-0.070731 -0.043170 0.044631 
0.260783 0.235376 -0.058728 
0.297682 0.340218 -0.076761 
-0.045224 0.334785 -0.250969 
0.359616 0.250416 -0.253738 
0.054973 0.319172 -0.400548 
-0.096856 -0.204568 0.176457 
0.254763 0.378449 -0.224880 
0.243164 0.300144 -0.073882 
0.166796 0.120751 -0.316404 
-0.185643 -0.095871 -0.011242 
-0.227545 -0.327920 0.195033 
0.203189 0.432644 -0.178716 
-0.227191 -0.363870 0.219295 
-0.263188 -0.242025 0.248084 
0.006560 -0.044350 -0.083428 
0.206330 0.316419 -0.132600 
0.000264 0.102384 -0.032349 
-0.357439 -0.250843 0.217811 
0.327707 0.346191 -0.195495 
0.235766 0.161302 -0.344111 
0.211013 0.145335 -0.423908 
-0.089630 -0.136536 -0.036289 
0.196583 0.197676 -0.542511 
-0.044633 0.079361 -0.057161 
-0.022149 0.102486 -0.143670 
0.062022 0.066896 -0.155219 
0.205337 0.296450 -0.087203 
0.208712 0.117993 -0.365734 
-0.168970 -0.219283 0.116744 
0.418594 0.372315 -0.106899 
0.354500 0.292522 -0.133413 
0.081643 0.033907 0.006830 
-0.168524 -0.237564 0.044614 
0.212429 0.156793 -0.262571 
0.178128 0.287029 -0.110092 
-0.129911 -0.163167 0.010640 
0.066339 0.011628 -0.043527 
-0.149676 -0.041831 -0.055916 
0.338038 0.272433 -0.275915 
0.019067 -0.073743 -0.018070 
-0.032315 0.402967 -0.334633 
0.012525 0.208094 -0.072623 
0.148552 0.421446 -0.144750 
0.038437 -0.039980 -0.049646 
0.020864 0.239887 -0.223694 
0.362836 0.223160 -0.287937 
-0.061944 -0.011986 -0.116144 
0.107750 0.101092 -0.324770 
0.150365 0.301009 -0.404365 
-0.159391 -0.205897 -0.015503 
0.213192 0.165996 -0.267316 
0.060932 -0.001799 0.038292 
0.133319 0.122818 -0.122669 
0.092481 0.119032 -0.314087 
0.026865 0.427094 -0.321509 
0.003906 0.030642 -0.139241 
-0.137295 -0.141183 -0.020228 
0.039624 0.166248 -0.071227 
-0.011924 0.522972 -0.203033 
0.075370 0.249530 -0.407080 
-0.086126 0.150496 -0.109514 
-0.308631 -0.377282 0.154380 
0.111902 0.106625 -0.077628 
0.187331 0.222431 -0.097465 
-0.183283 -0.044185 0.038888 
-0.076102 -0.096221 0.059602 
0.290953 0.251481 -0.208633 
0.294719 0.223425 -0.040672 
0.354867 0.375069 -0.075990 
0.051168 0.076255 -0.190186 
-0.090454 -0.078784 -0.022902 
0.092944 0.123607 -0.387505 
-0.227236 -0.152669 0.164143 
0.119684 0.336724 -0.178323 
-0.071212 -0.134784 -0.008006 
0.145759 0.122769 -0.115228 
-0.117053 -0.147815 0.159983 
0.131388 0.074887 -0.129587 
-0.185651 -0.294822 0.130874 
0.188856 0.203458 -0.158586 
0.004488 0.506642 -0.241037 
0.298261 0.373576 -0.152257 
0.408028 0.351910 -0.082020 
-0.054058 0.384964 -0.273588 
0.008281 0.349539 -0.356778 
-0.181727 -0.142516 -0.008566 
0.265320 0.211616 -0.142849 
-0.002043 0.064064 0.024652 
-0.191212 -0.066506 0.023835 
0.041644 0.135306 -0.051850 
0.094431 0.256547 -0.123974 
0.305744 0.206710 -0.396846 
-0.038376 0.175431 -0.157373 
-0.291484 -0.268341 0.223330 
0.037702 0.435685 -0.233040 
-0.125827 -0.152925 0.112033 
-0.168837 -0.285733 0.128813 
0.316901 0.259387 -0.087714 
0.050012 0.136167 -0.411907 
-0.324724 -0.295674 0.164487 
0.162600 0.102008 -0.308234 
0.203977 0.345753 -0.317618 
-0.000974 0.196303 -0.248687 
-0.088939 -0.095969 -0.046559 
-0.272858 -0.262154 0.244399 
-0.120656 -0.189756 -0.022102 
-0.137446 -0.030001 0.070363 
-0.083573 -0.015785 0.092520 
0.181265 0.322188 -0.346359 
0.124599 0.269624 -0.126914 
0.147638 0.425316 -0.172563 
-0.237426 -0.083666 0.084608 
0.231405 0.442538 -0.127525 
-0.078689 0.350842 -0.222896 
0.364076 0.249030 -0.256557 
-0.093960 -0.125281 0.023802 
-0.114667 0.092083 -0.001390 
-0.152422 0.039011 -0.016400 
-0.121249 -0.151922 0.195806 
-0.323713 -0.263554 0.121966 
0.155665 0.452800 -0.213894 
-0.076860 -0.099535 0.041734 
-0.026213 0.211892 -0.155601 
0.220460 0.203126 -0.468096 
0.004612 -0.057702 -0.065738 
-0.302489 -0.361900 0.169026 
0.165543 0.211480 -0.479138 
-0.056498 0.056232 -0.119392 
-0.124377 -0.182685 0.093049 
-0.047722 -0.050597 -0.135415 
0.010567 0.232616 -0.212155 
0.276674 0.344105 -0.166818 
0.268559 0.309923 -0.283882 
0.308055 0.419886 -0.173137 
-0.143073 -0.142426 0.171745 
0.028180 0.009218 -0.087957 
0.153660 0.323388 -0.138918 
0.151300 0.305658 -0.396792 
-0.089540 0.118822 -0.025524 
-0.106120 0.018095 0.047296 
0.114706 0.127003 -0.197599 
-0.122105 -0.191903 0.070344 
0.196644 0.236481 -0.393277 
0.383484 0.340601 -0.103990 
-0.030909 0.187123 -0.141709 
0.026053 0.290881 -0.291791 
-0.122220 0.005493 0.037500 
-0.206565 -0.234310 0.171387 
-0.197227 -0.271919 0.103518 
0.030883 -0.010024 -0.010532 
-0.242195 -0.135586 0.137365 
0.317769 0.263245 -0.139825 
-0.249607 -0.117543 0.071143 
0.094964 0.469600 -0.248009 
-0.138936 -0.202480 0.028331 
0.017039 0.375730 -0.385775 
0.037712 0.403167 -0.387912 
-0.266960 -0.344539 0.166438 
0.247437 0.419575 -0.174392 
0.106928 0.221808 -0.429883 
-0.173786 -0.235772 0.024162 
0.193809 0.241935 -0.098733 
0.230519 0.269565 -0.374112 
0.311867 0.277322 -0.111947 
0.114202 0.157168 -0.072585 
0.149572 0.429989 -0.158719 
0.197976 0.306716 -0.112477 
-0.137358 -0.292752 0.211831 
0.088866 0.132159 -0.284113 
-0.179526 -0.166463 0.035734 
-0.150496 -0.101104 0.131150 
0.108077 0.088701 -0.418170 
-0.174952 -0.084733 0.007590 
-0.042499 0.414670 -0.301922 
0.110063 0.084510 -0.405286 
0.024354 0.043010 0.045233 
-0.036235 0.330285 -0.185737 
-0.242093 -0.088006 0.105318 
0.015653 0.081382 -0.037712 
-0.100252 0.011769 0.069361 
0.058926 0.398831 -0.362709 
-0.004946 -0.031809 -0.167048 
-0.048711 0.128119 -0.124715 
-0.089588 0.022472 0.042416 
0.058660 0.120733 -0.264383 
-0.268146 -0.135665 0.120498 
0.086869 0.406188 -0.210717 
0.171579 0.081073 -0.351926 
0.072300 0.101802 -0.119352 
0.400956 0.354491 -0.100532 
-0.170760 -0.074638 0.082782 
-0.084827 0.095874 -0.012709 
-0.195720 -0.330439 0.198384 
-0.394569 -0.296817 0.223681 
-0.283715 -0.160915 0.162357 
0.109114 0.160299 -0.397627 
-0.067508 -0.107349 0.024509 
0.216729 0.206640 -0.129804 
0.169730 0.267456 -0.088281 
0.096740 0.115236 -0.304228 
-0.191735 -0.332888 0.189737 
0.106457 0.162803 -0.341876 
-0.014241 0.145719 -0.090009 
-0.193319 -0.109288 0.004810 
0.020949 0.372864 -0.386170 
-0.189260 -0.263907 0.220336 
-0.016491 0.044337 0.028441 
-0.208505 -0.255185 0.225405 
-0.289651 -0.316271 0.240265 
0.316388 0.345546 -0.068447 
0.269956 0.120509 -0.456008 
-0.139370 -0.123842 0.113088 
0.343689 0.227058 -0.081158 
-0.073523 -0.108574 0.129199 
0.055451 0.304754 -0.404790 
-0.118631 0.009938 -0.117522 
0.139135 0.150132 -0.431312 
0.200225 0.076980 -0.398333 
0.223947 0.165219 -0.399189 
-0.352964 -0.239006 0.193893 
0.192863 0.228287 -0.109970 
-0.164360 0.062285 -0.047583 
0.082633 0.117017 -0.266858 
0.133967 0.097040 -0.222580 
-0.006150 0.047256 -0.218014 
-0.179755 -0.256246 0.145683 
0.271912 0.235561 -0.244009 
0.305142 0.223182 -0.117155 
-0.031265 0.443642 -0.286105 
0.226211 0.342429 -0.283375 
0.113760 0.466808 -0.197198 
0.220928 0.322171 -0.304018 
0.049203 0.395074 -0.346654 
0.205174 0.326492 -0.305625 
0.349593 0.279589 -0.135109 
0.316398 0.313388 -0.177557 
-0.011366 -0.102944 -0.124157 
0.033817 0.402489 -0.321579 
0.148784 0.371717 -0.315195 
0.158924 0.207645 -0.424873 
0.023324 0.345797 -0.338901 
0.143646 0.141751 -0.248032 
0.161745 0.411767 -0.240142 
-0.048365 0.139994 -0.156838 
0.199760 0.131212 -0.492187 
-0.174622 -0.027572 0.064270 
-0.315188 -0.235041 0.170376 
0.066461 0.416688 -0.215227 
-0.052341 0.331616 -0.245925 
-0.316336 -0.295211 0.244639 
-0.034577 0.349478 -0.156965 
0.020129 0.162041 -0.093065 
-0.049995 -0.007822 -0.145083 
0.327213 0.244209 -0.157603 
0.033135 -0.018587 -0.074179 
0.417705 0.291138 -0.133167 
0.184660 0.157773 -0.454866 
0.114604 0.337026 -0.384536 
-0.115220 -0.051380 -0.083351 
-0.169106 -0.246108 0.107391 
0.277055 0.343469 -0.132345 
-0.169290 -0.148549 -0.006406 
-0.021465 0.481495 -0.326081 
-0.226809 -0.308996 0.115744 
0.171183 0.161700 -0.466981 
-0.103576 -0.069624 0.094585 
-0.134491 -0.051453 -0.031044 
-0.190521 -0.340579 0.247798 
-0.177405 0.072559 -0.036842 
0.145984 0.466537 -0.162061 
0.146389 0.082952 -0.146629 
-0.045642 0.068276 -0.140600 
-0.296227 -0.232413 0.144011 
0.161629 0.324849 -0.166883 
-0.255659 -0.283416 0.171211 
-0.202927 -0.287295 0.041432 
0.075637 0.294934 -0.450838 
0.015275 0.215344 -0.099029 
-0.152896 -0.014659 -0.050822 
0.155446 0.135177 -0.149706 
-0.092667 -0.128097 -0.012653 
-0.241619 -0.360882 0.154103 
0.257438 0.233949 -0.400450 
-0.140920 -0.227315 0.022297 
-0.150145 -0.074480 -0.048705 
0.212753 0.116499 -0.282644 
0.140983 0.212961 -0.374557 
-0.029556 0.391213 -0.242640 
-0.183502 -0.067165 0.019130 
0.365494 0.307702 -0.152037 
-0.087454 -0.001293 -0.117375 
-0.045607 0.505013 -0.334200 
0.107469 0.367686 -0.385391 
-0.120910 -0.052506 -0.017434 
-0.065811 0.085321 -0.116244 
0.228062 0.259531 -0.074258 
-0.174276 -0.296385 0.252635 
0.115223 0.458314 -0.177251 
0.308322 0.175284 -0.330586 
0.398388 0.274463 -0.148648 
-0.298201 -0.228720 0.116288 
-0.156147 -0.098048 0.118280 
-0.149081 0.004603 -0.055585 
-0.175224 -0.088339 0.061100 
0.009803 0.282795 -0.301361 
0.147715 0.094203 -0.338412 
0.032977 -0.002743 -0.163512 
0.056796 0.222851 -0.125431 
-0.266632 -0.298390 0.236959 
0.220823 0.192023 -0.420465 
0.100610 0.332231 -0.400075 
-0.033861 0.315912 -0.207922 
0.185366 0.330990 -0.329729 
0.054113 0.207553 -0.327280 
-0.146796 0.116033 -0.082105 
-0.135605 -0.260284 0.217503 
0.156104 0.477836 -0.175350 
0.074919 0.207454 -0.394263 
0.231112 0.264722 -0.387731 
0.106425 0.090711 -0.117383 
-0.254799 -0.348935 0.077560 
0.199229 0.154480 -0.225294 
-0.287047 -0.233043 0.156919 
0.402514 0.318130 -0.068262 
0.097828 0.159228 -0.399030 
0.025986 0.461322 -0.232264 
0.244442 0.161744 -0.353701 
0.143102 0.271735 -0.459357 
0.033845 0.182757 -0.078744 
-0.218901 -0.306163 0.155563 
0.184578 0.111836 -0.302660 
0.033453 0.338660 -0.408681 
0.038623 0.216909 -0.116684 
0.005888 0.134925 -0.084346 
0.318934 0.241716 -0.121998 
0.048823 0.210448 -0.053999 
0.038355 0.503591 -0.251756 
0.036218 0.487211 -0.219090 
0.078583 0.065141 -0.188116 
0.012274 -0.035425 -0.196270 
0.010477 0.216877 -0.133023 
-0.265037 -0.163045 0.066273 
-0.273225 -0.300168 0.260973 
-0.099758 0.151016 -0.082850 
0.289607 0.148506 -0.482383 
0.147907 0.148619 -0.246428 
-0.002941 0.452572 -0.234544 
-0.050252 0.083926 -0.027790 
-0.172058 -0.084408 0.147285 
-0.222661 -0.222428 0.267902 
0.013367 0.378486 -0.415137 
0.081700 0.340520 -0.123177 
-0.042910 0.409821 -0.214026 
0.048944 0.249852 -0.298547 
0.034280 0.028209 -0.027678 
0.115276 0.081439 -0.133406 
0.132785 0.238732 -0.122042 
0.244868 0.310130 -0.121502 
0.129303 0.146118 -0.097773 
-0.210558 -0.142162 0.016529 
-0.280306 -0.319899 0.102613 
-0.158013 -0.071634 -0.019527 
-0.152622 -0.005152 0.035873 
-0.089454 -0.098671 0.023276 
-0.087479 -0.116648 0.138005 
-0.131434 -0.228979 0.182060 
0.292282 0.209827 -0.402261 
-0.054188 -0.076486 0.023996 
0.281123 0.166542 -0.472238 
-0.087573 0.347893 -0.150529 
0.372811 0.241031 -0.279943 
0.103043 0.370445 -0.370313 
0.295422 0.184013 -0.242050 
0.358069 0.216246 -0.292052 
-0.270616 -0.225878 0.152829 
0.293609 0.270863 -0.055160 
0.373470 0.344812 -0.088288 
-0.042888 0.444338 -0.312173 
0.373928 0.364517 -0.092953 
0.053681 0.121507 -0.020070 
-0.129208 -0.131981 0.121426 
-0.107012 -0.093843 0.087166 
-0.008489 0.084016 -0.188240 
0.294887 0.197256 -0.368314 
0.018676 0.215297 -0.238309 
-0.242183 -0.264084 0.249882 
0.223231 0.140321 -0.371349 
0.366779 0.287759 -0.166234 
0.186504 0.202405 -0.442559 
0.359269 0.264919 -0.249717 
0.302103 0.220201 -0.170413 
0.325823 0.209462 -0.382609 
0.048198 0.362058 -0.314897 
0.056147 0.077640 -0.054118 
-0.000926 0.442699 -0.146969 
-0.112305 0.034471 0.044427 
0.418618 0.332254 -0.121773 
0.176974 0.243540 -0.475908 
0.079237 0.412703 -0.316063 
0.343639 0.238506 -0.127692 
0.379546 0.277118 -0.136634 
0.152198 0.290129 -0.092509 
-0.249671 -0.333812 0.137828 
-0.051018 0.378820 -0.192881 
-0.128304 -0.231199 0.131654 
0.020393 0.074022 -0.138820 
-0.137544 -0.220740 0.042722 
0.150488 0.115010 -0.112986 
-0.133820 0.014185 0.014713 
-0.206111 -0.320507 0.248420 
0.051671 0.315826 -0.371636 
0.371268 0.313031 -0.193358 
0.038344 0.477995 -0.272927 
0.219831 0.128030 -0.525061 
-0.107402 0.038933 0.043963 
0.111430 0.286165 -0.433706 
-0.327693 -0.276671 0.260610 
-0.236490 -0.243737 0.052169 
-0.062123 0.136839 -0.114818 
-0.216448 -0.074777 0.025205 
0.127989 0.129769 -0.441432 
0.065713 0.135478 -0.349196 
0.321543 0.184885 -0.352985 
0.029549 0.366639 -0.335567 
0.003184 0.247175 -0.209480 
0.220357 0.180188 -0.503675 
-0.168258 -0.230640 0.014091 
-0.063600 0.149445 -0.123934 
0.248135 0.226180 -0.059103 
0.101588 0.136321 -0.455569 
-0.044572 0.412149 -0.316386 
-0.020133 0.100020 -0.163015 
-0.334111 -0.267437 0.148913 
-0.032710 0.010765 -0.104118 
0.015117 0.374306 -0.365545 
0.269880 0.251195 -0.070107 
0.146126 0.117026 -0.403880 
-0.162699 -0.105614 0.011493 
0.332970 0.259560 -0.297486 
0.227641 0.165822 -0.395226 
0.330270 0.181354 -0.339372 
-0.333395 -0.303323 0.232505 
-0.024972 0.522917 -0.244532 
-0.059393 -0.028806 -0.162274 
-0.064329 0.080357 -0.024713 
-0.014875 0.429825 -0.282110 
-0.278240 -0.179341 0.148895 
-0.213421 -0.298266 0.264115 
0.018335 -0.075577 -0.065854 
0.272406 0.152579 -0.490960 
0.124407 0.190987 -0.398779 
-0.008935 -0.013365 -0.123199 
-0.060420 0.146378 -0.107168 
-0.149851 -0.234097 0.187915 
-0.208313 -0.181396 0.167732 
0.102823 0.146209 -0.243840 
0.126455 0.158256 -0.091617 
-0.372320 -0.275473 0.254779 
-0.163369 -0.159487 0.151402 
0.040362 0.023666 -0.036543 
-0.132149 -0.052636 -0.076553 
-0.098400 0.032043 -0.097790 
-0.225116 -0.304696 0.268331 
0.301642 0.152242 -0.491948 
-0.136450 -0.181218 -0.020193 
0.308098 0.324323 -0.098398 
-0.189905 -0.354197 0.245714 
0.166354 0.090132 -0.401863 
0.037982 0.433513 -0.352436 
0.143715 0.468823 -0.163792 
0.272069 0.257836 -0.256725 
0.312676 0.355202 -0.163809 
0.138024 0.103445 -0.175297 
0.260988 0.337423 -0.097981 
0.142051 0.218573 -0.476197 
0.235278 0.248822 -0.092892 
0.018579 0.038526 0.076376 
0.127749 0.064139 -0.119144 
0.190870 0.431565 -0.200417 
0.002512 -0.044676 0.018478 
0.199187 0.250498 -0.064394 
0.026051 0.236377 -0.295677 
0.038314 0.164725 -0.299353 
0.271623 0.228565 -0.183546 
0.140900 0.349142 -0.310365 
0.290886 0.299922 -0.096758 
-0.002985 0.440091 -0.227982 
0.087843 0.207228 -0.374843 
-0.006336 0.457709 -0.339045 
-0.057572 0.041184 -0.102345 
-0.090784 -0.069371 -0.027738 
-0.049348 0.178983 -0.137879 
0.350260 0.283225 -0.183732 
-0.262910 -0.338470 0.137221 
-0.167126 -0.016111 0.052378 
-0.116240 0.140058 -0.062892 
-0.131228 0.057494 0.004364 
-0.258303 -0.357496 0.149151 
-0.232355 -0.127949 0.057088 
0.195230 0.263625 -0.108417 
0.343358 0.345838 -0.123515 
0.321191 0.295630 -0.180579 
-0.155070 -0.227689 0.090112 
0.291668 0.176574 -0.276917 
-0.201300 -0.192101 0.127122 
0.217513 0.219818 -0.505706 
0.286964 0.328012 -0.074608 
-0.099194 0.108028 -0.066701 
-0.145376 -0.060501 0.103150 
0.207663 0.131250 -0.403527 
0.041297 0.394525 -0.377480 
0.395624 0.349008 -0.099765 
0.152056 0.308933 -0.121141 
0.061300 0.008412 0.045209 
-0.192381 -0.305747 0.120003 
-0.028457 0.018809 0.063932 
0.142826 0.128598 -0.211198 
0.299320 0.257817 -0.230877 
0.208641 0.124060 -0.308355 
0.211960 0.450150 -0.136861 
-0.077178 0.359018 -0.247033 
-0.329833 -0.287485 0.188082 
-0.208702 -0.192392 0.109065 
-0.085087 -0.020126 0.044859 
-0.050410 -0.000935 -0.177079 
-0.287033 -0.182410 0.213965 
0.032111 0.243362 -0.318509 
-0.237810 -0.202941 0.004919 
0.368445 0.258815 -0.272164 
-0.086763 -0.035484 -0.040480 
0.213160 0.110851 -0.421696 
-0.234652 -0.165885 0.080756 
-0.218493 -0.303773 0.264434 
-0.058757 -0.097429 -0.012716 
-0.081884 0.051214 -0.098426 
-0.341079 -0.313908 0.199628 
0.060460 0.121331 -0.024219 
0.253418 0.407992 -0.164702 
-0.284074 -0.236679 0.139099 
0.049110 0.055855 -0.117424 
0.016921 -0.074279 0.005550 
0.113510 0.141103 -0.228288 
0.024430 0.105715 -0.014560 
0.063675 0.086528 -0.232180 
0.346856 0.404995 -0.100279 
0.178921 0.403385 -0.156761 
-0.054634 -0.076070 -0.142420 
-0.017038 0.186775 -0.158442 
0.208432 0.140716 -0.540108 
0.067009 0.026036 -0.134296 
0.072985 0.061007 -0.148072 
0.146604 0.133592 -0.235102 
0.301323 0.306003 -0.217425 
0.139107 0.222871 -0.401569 
0.373057 0.226676 -0.277079 
0.127271 0.104263 -0.133193 
-0.047055 0.409388 -0.191905 
-0.223084 -0.085150 0.156360 
-0.017864 0.377237 -0.226737 
-0.143975 -0.057171 0.166678 
-0.212504 -0.318028 0.070288 
0.135950 0.442155 -0.214667 
-0.066601 0.346329 -0.243493 
-0.043085 -0.022882 0.043501 
-0.069058 0.112939 -0.148099 
-0.236874 -0.198802 0.088938 
-0.075626 -0.166764 0.086722 
0.016322 0.265307 -0.162437 
-0.169896 -0.043150 0.059609 
0.017164 -0.039827 0.003992 
0.134623 0.368996 -0.335196 
0.236950 0.194688 -0.122004 
0.371807 0.281617 -0.134387 
-0.186307 -0.109765 0.007841 
0.312561 0.276821 -0.157221 
0.021245 0.360682 -0.288035 
-0.041461 0.072899 -0.201929 
-0.168474 -0.077882 0.115451 
0.003579 0.141572 -0.242435 
-0.167542 -0.172210 -0.018586 
0.038550 0.047926 0.062861 
0.202943 0.134537 -0.480027 
0.032662 -0.052489 -0.029062 
0.129985 0.172806 -0.379524 
0.042611 0.140411 -0.058726 
0.148949 0.150406 -0.464870 
-0.102687 0.153464 -0.052624 
-0.180087 -0.055040 -0.002809 
0.000095 0.462683 -0.280029 
0.264475 0.329216 -0.113390 
-0.175599 -0.083776 0.097040 
-0.016446 0.062316 0.056896 
0.120611 0.302334 -0.127215 
-0.006426 0.056929 -0.157502 
0.282650 0.207237 -0.140827 
-0.168886 -0.236791 0.164824 
0.088031 0.133592 -0.296097 
-0.348483 -0.275224 0.224506 
0.141210 0.145802 -0.153766 
0.196224 0.183269 -0.156452 
0.129895 0.313870 -0.187394 
-0.186769 -0.108842 0.101893 
0.119363 0.162901 -0.421205 
0.320786 0.207847 -0.279501 
0.109087 0.122982 -0.073259 
-0.106270 -0.096085 0.068838 
0.071513 0.143341 -0.069965 
0.143153 0.200503 -0.125252 
-0.055702 0.326559 -0.159717 
0.182505 0.145195 -0.546886 
-0.038366 0.103126 -0.088970 
0.091452 0.252534 -0.384097 
-0.003204 0.094723 -0.053252 
0.207693 0.288973 -0.358615 
0.310365 0.275982 -0.097008 
0.115223 0.212098 -0.397554 
0.347855 0.197477 -0.341853 
-0.205318 -0.271550 0.136281 
-0.218035 -0.343610 0.144724 
0.125173 0.054660 -0.379074 
-0.309320 -0.248370 0.185265 
0.079926 0.363243 -0.179671 
0.211135 0.116741 -0.420880 
-0.093341 -0.073698 -0.082721 
-0.314412 -0.313692 0.249328 
0.265813 0.350670 -0.119654 
-0.292420 -0.234186 0.128579 
-0.297033 -0.268501 0.234598 
-0.021691 -0.082072 -0.121481 
0.066640 0.113076 -0.251237 
-0.230881 -0.309896 0.147691 
-0.068536 -0.071345 -0.048160 
-0.025218 0.109143 -0.014402 
-0.129679 -0.171785 0.019932 
0.212162 0.192159 -0.497134 
-0.085450 0.347361 -0.212191 
-0.013729 0.012487 -0.154771 
0.315758 0.243188 -0.009971 
-0.005908 0.030528 0.089421 
0.175627 0.371757 -0.297040 
0.099250 0.417238 -0.228857 
-0.095568 -0.180175 0.159450 
-0.230646 -0.228969 0.038096 
0.004199 0.216177 -0.214328 
0.100020 0.120104 -0.239562 
-0.000363 0.374546 -0.282068 
0.155423 0.259230 -0.097156 
0.240851 0.429950 -0.140290 
0.114481 0.295402 -0.479370 
-0.078155 -0.110011 0.052328 
0.238288 0.272189 -0.353936 
-0.214820 -0.329379 0.192907 
-0.193981 -0.311313 0.197744 
0.088939 0.368720 -0.356921 
-0.104141 -0.071935 -0.051808 
0.152328 0.097158 -0.167705 
0.303458 0.294957 -0.188029 
0.308109 0.292693 -0.281194 
-0.106694 -0.019919 0.030732 
0.051042 0.102016 -0.058139 
-0.124591 -0.128358 -0.020023 
-0.121936 -0.006923 0.000456 
-0.205862 -0.304596 0.162317 
0.083203 0.323544 -0.458823 
-0.046992 0.134770 -0.123754 
-0.315974 -0.333377 0.178026 
-0.052132 0.509222 -0.344144 
0.332833 0.185822 -0.346833 
0.036022 0.174715 -0.100148 
-0.232190 -0.322203 0.152184 
-0.016577 0.286241 -0.211489 
0.233472 0.213840 -0.082092 
-0.118155 0.100891 -0.102295 
-0.064814 -0.143203 -0.007787 
0.007830 0.067649 0.067098 
0.251105 0.176836 -0.262462 
0.094137 0.071493 -0.076807 
-0.077518 -0.114283 -0.042474 
0.042718 0.329278 -0.431652 
-0.267381 -0.257815 0.248264 
-0.129417 -0.113883 -0.033938 
0.046395 0.169030 -0.050432 
-0.219842 -0.079827 0.053386 
0.220666 0.432322 -0.128562 
0.234115 0.270823 -0.337026 
0.081326 0.184009 -0.038895 
0.009181 0.048528 -0.168821 
0.310327 0.243286 -0.343743 
-0.086893 0.132866 -0.077485 
0.009448 0.379501 -0.168472 
0.057761 0.103986 -0.255477 
0.213876 0.098666 -0.411024 
0.055057 0.192369 -0.260770 
-0.024895 0.437470 -0.271977 
0.223024 0.159179 -0.487715 
0.150514 0.234549 -0.122422 
-0.142775 0.038075 -0.004502 
-0.082311 0.017558 0.049470 
0.103428 0.140959 -0.422263 
0.118472 0.083430 -0.199103 
-0.120845 0.040987 -0.032646 
-0.240925 -0.107877 0.127528 
0.285514 0.234665 -0.194368 
-0.203539 -0.240009 0.145837 
-0.182546 -0.254726 0.220883 
-0.003215 0.125817 -0.051763 
-0.094541 -0.164086 0.155442 
-0.069570 0.108611 -0.115963 
0.028627 -0.022350 -0.083716 
0.025271 0.062378 0.063563 
-0.091473 -0.146155 0.102506 
0.181570 0.164129 -0.233844 
-0.053594 -0.094625 -0.017001 
0.053448 0.102374 -0.078486 
0.016998 0.343244 -0.318393 
0.267830 0.390767 -0.174892 
0.145325 0.081998 -0.409235 
-0.024882 0.513626 -0.253064 
0.175353 0.465056 -0.159955 
0.209775 0.199418 -0.085449 
0.403357 0.321004 -0.156618 
-0.000077 0.265136 -0.188142 
0.241991 0.240512 -0.404295 
0.032138 0.289558 -0.345720 
-0.135759 -0.014051 -0.053172 
0.129164 0.078581 -0.342408 
-0.110512 0.022096 0.025998 
-0.308025 -0.217761 0.207113 
-0.290388 -0.262241 0.119266 
0.444889 0.274209 -0.112374 
-0.241712 -0.116279 0.152092 
-0.147989 -0.247588 0.099633 
0.356907 0.291492 -0.089941 
-0.076597 0.064686 -0.117089 
-0.012946 0.287348 -0.258585 
0.061001 0.050923 0.031168 
-0.352186 -0.293529 0.177776 
-0.185320 -0.181923 0.000839 
0.171639 0.087299 -0.338633 
0.078717 0.291579 -0.141347 
0.200017 0.170898 -0.542251 
0.154579 0.133619 -0.126869 
-0.262665 -0.287762 0.199832 
0.304044 0.250734 -0.157811 
0.243242 0.139322 -0.509173 
-0.172875 -0.166684 0.021395 
0.098832 0.110484 -0.408657 
0.211199 0.482331 -0.126813 
-0.245574 -0.356797 0.160044 
0.030376 -0.030150 0.062128 
-0.337153 -0.307858 0.206724 
-0.136242 -0.240817 0.102509 
-0.143888 -0.078180 -0.012364 
-0.132867 0.120808 -0.002295 
0.345724 0.205892 -0.369170 
0.000825 0.268449 -0.212488 
0.160797 0.257388 -0.426463 
0.066857 0.116027 -0.039996 
0.140049 0.431477 -0.164571 
-0.301792 -0.240162 0.123873 
0.292937 0.166902 -0.372182 
-0.121497 -0.174764 0.023346 
0.266838 0.310003 -0.081717 
0.230142 0.318038 -0.044291 
0.276667 0.263814 -0.341029 
-0.261110 -0.256988 0.083202 
0.178842 0.263273 -0.119810 
0.040093 0.100299 -0.010662 
-0.042863 -0.023808 -0.137943 
0.038413 0.006172 -0.016322 
0.331316 0.293375 -0.240853 
-0.255084 -0.182041 0.145732 
0.276880 0.199563 -0.103696 
0.269037 0.146027 -0.437716 
0.479682 0.327321 -0.087035 
-0.134193 -0.016644 -0.103567 
-0.224524 -0.097818 0.091494 
0.256529 0.389737 -0.193130 
0.328443 0.201589 -0.309479 
0.050088 0.116077 -0.285464 
0.152193 0.450002 -0.151921 
-0.241208 -0.260182 0.215390 
-0.210336 0.058067 -0.073569 
0.113993 0.069227 0.035443 
0.210892 0.141956 -0.442156 
-0.120366 -0.035854 -0.100980 
-0.094279 -0.178753 0.049771 
-0.124430 -0.208466 -0.010560 
-0.215834 -0.255428 0.080534 
0.122771 0.210260 -0.432927 
-0.030618 0.105663 -0.117331 
-0.006107 0.143497 -0.081612 
-0.128114 -0.023116 -0.061981 
-0.116499 0.151068 -0.044826 
0.057019 0.077231 -0.107548 
-0.029543 0.419909 -0.241641 
-0.061297 0.043754 0.071801 
0.203940 0.262127 -0.392289 
0.033388 0.043408 -0.097235 
-0.090648 0.360230 -0.187790 
0.313125 0.250249 -0.095914 
0.046152 0.224910 -0.325923 
0.168049 0.068297 -0.368036 
0.300720 0.228120 -0.368824 
-0.055204 -0.086507 -0.146918 
-0.146941 -0.100126 0.124456 
0.186430 0.053006 -0.391140 
0.206459 0.088771 -0.396132 
0.019595 0.089186 -0.221334 
0.311278 0.248257 -0.237560 
0.154894 0.057823 -0.401797 
-0.115359 -0.169962 -0.036665 
0.383789 0.260621 -0.236826 
0.158015 0.201358 -0.447391 
0.139985 0.410799 -0.312159 
0.076905 0.276986 -0.442527 
0.030217 0.239416 -0.110892 
-0.029477 0.039418 0.056599 
-0.090513 -0.191965 0.119083 
0.426048 0.334268 -0.108866 
0.075791 0.234585 -0.090348 
0.017327 -0.005998 -0.176690 
0.025884 0.474350 -0.274423 
-0.147768 -0.072738 -0.020239 
0.254589 0.429417 -0.137276 
-0.066344 0.032656 -0.120599 
0.277917 0.329377 -0.103144 
0.060666 0.085507 -0.091114 
0.091774 0.188903 -0.090146 
-0.031300 0.186803 -0.166244 
0.189781 0.439528 -0.137965 
-0.172038 0.054194 -0.074574 
-0.251026 -0.104103 0.134167 
0.038168 0.022214 0.072797 
0.017479 0.152700 -0.229106 
0.096724 0.431366 -0.255427 
0.049493 0.269762 -0.349234 
0.037917 -0.006479 -0.168505 
0.003971 0.084602 -0.173039 
-0.169640 -0.110687 0.042790 
0.002338 0.295223 -0.283735 
-0.111374 -0.162037 0.216023 
0.063069 0.099760 -0.052674 
0.114672 0.292860 -0.432992 
-0.349891 -0.257033 0.245321 
0.031322 0.218663 -0.252883 
0.014235 0.303699 -0.171430 
0.124782 0.095929 -0.430239 
-0.129043 -0.154396 -0.036781 
0.020406 0.383341 -0.166612 
-0.001417 0.045398 0.049250 
0.054486 0.299215 -0.345096 
0.055504 0.132019 -0.326261 
0.270591 0.362725 -0.146649 
0.057799 0.293947 -0.173595 
0.150404 0.158131 -0.161618 
-0.280838 -0.305201 0.148061 
0.082366 0.281128 -0.443942 
-0.263516 -0.250429 0.232124 
0.361311 0.376348 -0.048410 
-0.247692 -0.267959 0.088009 
-0.267354 -0.318092 0.294796 
-0.199844 -0.042971 0.050274 
-0.207537 -0.116391 0.047550 
-0.022211 0.095689 -0.119307 
-0.217436 -0.344490 0.262063 
-0.052839 -0.122506 0.057952 
0.011148 0.232646 -0.230024 
0.310535 0.252037 -0.116784 
-0.111417 -0.042215 0.055061 
-0.224418 -0.064846 0.087317 
0.111457 0.082279 -0.116761 
-0.100105 -0.208192 0.063618 
-0.098587 -0.209606 0.059255 
-0.255218 -0.280745 0.240981 
0.080706 0.326443 -0.152820 
-0.058558 -0.103360 -0.057405 
0.091085 0.217712 -0.099550 
-0.142447 -0.166995 -0.025835 
-0.238204 -0.338883 0.181552 
0.038334 0.057778 -0.025312 
-0.308347 -0.346105 0.170485 
-0.271091 -0.153390 0.100801 
-0.191538 -0.190262 0.014782 
0.252355 0.229600 -0.106585 
0.054000 0.194861 -0.333166 
-0.048900 0.080601 -0.120953 
-0.031979 0.053552 -0.154237 
0.008847 -0.039993 -0.129706 
0.002707 0.308484 -0.164976 
0.002681 -0.044888 -0.086667 
-0.216685 -0.253953 0.239900 
-0.161366 0.016588 -0.029216 
-0.079111 -0.032205 -0.130097 
-0.281502 -0.153875 0.105983 
-0.021339 0.543185 -0.235977 
0.141126 0.339123 -0.152056 
0.433495 0.297120 -0.139018 
0.130210 0.086454 -0.291100 
-0.185754 -0.072971 0.020480 
0.111096 0.333385 -0.145748 
-0.084057 -0.079963 -0.036890 
0.292683 0.225870 -0.321540 
0.085037 0.071625 -0.087465 
0.168519 0.158661 -0.465942 
0.151237 0.201557 -0.116083 
-0.026615 0.143005 -0.091468 
-0.191795 -0.174214 -0.017585 
0.011081 0.077918 -0.202265 
-0.134386 -0.131378 0.134789 
0.082346 0.078435 -0.225705 
-0.063190 0.066056 0.043035 
0.045348 0.061277 -0.017515 
-0.135152 -0.163850 -0.028212 
-0.157043 -0.080149 0.115781 
-0.186613 -0.318927 0.202431 
-0.361210 -0.264322 0.231795 
-0.042872 0.457235 -0.345084 
0.153550 0.303129 -0.393846 
-0.001688 0.132263 -0.051071 
-0.325529 -0.225364 0.147268 
0.011136 0.034369 -0.096283 
0.287444 0.281502 -0.217094 
-0.086083 0.155982 -0.120050 
-0.128824 0.007805 0.026243 
0.174162 0.226277 -0.489298 
-0.167999 -0.282889 0.267561 
-0.128031 -0.194125 0.086977 
-0.082235 -0.125932 0.102285 
-0.040021 0.306831 -0.262781 
-0.306712 -0.271173 0.217054 
-0.141493 -0.097738 0.122628 
0.176302 0.157554 -0.232466 
0.080411 0.318256 -0.406794 
-0.147172 -0.001210 -0.004519 
0.192121 0.199022 -0.504346 
-0.065905 -0.193055 0.079321 
0.045908 0.419085 -0.218365 
0.109027 0.458149 -0.199671 
-0.166524 -0.022546 -0.060836 
0.114593 0.295524 -0.124324 
0.007145 0.185043 -0.064275 
-0.142683 -0.042946 -0.027482 
-0.238599 -0.322694 0.213478 
0.042755 0.299271 -0.180912 
0.242540 0.177489 -0.271596 
0.234313 0.328236 -0.108562 
0.220569 0.169860 -0.254378 
-0.030876 -0.057812 0.030033 
0.198002 0.100503 -0.433394 
-0.195299 -0.212318 0.145745 
-0.030220 0.490038 -0.243386 
-0.054574 0.383564 -0.205542 
0.239197 0.266479 -0.075777 
0.298368 0.277723 -0.041734 
0.356918 0.244591 -0.123327 
0.251904 0.225236 -0.100170 
0.242739 0.154333 -0.100076 
0.311915 0.328213 -0.077909 
-0.234243 -0.341579 0.250301 
-0.213166 -0.304280 0.152343 
-0.193288 -0.203995 0.033536 
0.046806 0.099856 -0.227664 
-0.148581 -0.088743 0.103030 
0.117251 0.252876 -0.114471 
0.016072 -0.084734 0.000989 
0.209974 0.178857 -0.150730 
0.054405 0.330677 -0.440554 
-0.110925 0.001034 0.054863 
0.070496 0.095224 -0.077385 
-0.346141 -0.237208 0.208001 
-0.155056 -0.259731 0.008316 
0.180340 0.118525 -0.401249 
-0.045045 0.486535 -0.260770 
0.262769 0.200341 -0.241582 
-0.112478 0.002097 -0.094303 
0.156052 0.363002 -0.142022 
0.184375 0.186392 -0.534671 
-0.089016 -0.124822 0.157601 
-0.157938 -0.009515 -0.062233 
0.334358 0.250616 -0.259229 
-0.238372 -0.258429 0.221994 
-0.006812 0.389546 -0.172809 
0.019389 0.380319 -0.192469 
0.313731 0.356216 -0.084335 
0.268642 0.256491 -0.085207 
0.137984 0.134161 -0.265244 
0.060244 0.325690 -0.452008 
0.312560 0.257569 -0.160708 
-0.015777 0.168151 -0.186054 
-0.063145 0.138748 -0.160435 
0.372551 0.233998 -0.274407 
-0.094588 0.147810 -0.053062 
0.142958 0.109735 -0.110486 
0.112563 0.160051 -0.066914 
-0.104969 0.045581 -0.087546 
0.021560 -0.042106 0.074045 
0.213110 0.360873 -0.268601 
0.313665 0.365428 -0.174128 
-0.262271 -0.240241 0.087929 
-0.006440 0.212165 -0.071619 
-0.232921 -0.177311 0.074531 
0.281837 0.124553 -0.479824 
0.000852 0.389680 -0.285243 
-0.017580 -0.081852 -0.030398 
-0.197388 -0.175010 0.166277 
-0.126841 -0.157573 0.013067 
0.244998 0.253067 -0.138857 
0.400485 0.335547 -0.134906 
-0.241434 -0.219550 0.184652 
-0.002839 0.146476 -0.189505 
-0.040000 0.315814 -0.272947 
-0.128359 -0.008557 0.015569 
-0.264728 -0.337778 0.144624 
-0.167691 -0.074128 0.117545 
0.113835 0.069203 -0.228091 
-0.196258 -0.179511 0.058404 
0.268819 0.148297 -0.431012 
0.160745 0.190165 -0.485496 
0.190062 0.168190 -0.364659 
-0.090991 0.143713 -0.071952 
0.359076 0.306726 -0.197294 
0.329930 0.270936 -0.283232 
0.228307 0.155564 -0.354978 
0.118652 0.057416 -0.391958 
-0.047881 -0.113559 0.101791 
-0.209746 -0.342426 0.229921 
-0.083645 -0.108226 0.088431 
-0.289389 -0.260631 0.231881 
-0.096325 -0.156634 0.017021 
-0.259036 -0.195134 0.075701 
-0.002566 0.096339 0.003024 
0.144578 0.203989 -0.440971 
0.012101 0.251426 -0.147406 
-0.209098 -0.283907 0.070968 
0.035584 0.085482 -0.038725 
0.213117 0.175056 -0.186452 
-0.257628 -0.356780 0.175157 
0.214909 0.309724 -0.320296 
-0.013903 0.204715 -0.099997 
-0.171078 0.078444 -0.014191 
0.202853 0.121723 -0.434407 
-0.235800 -0.275945 0.056999 
-0.204835 -0.278195 0.054721 
0.201562 0.210040 -0.090730 
0.300201 0.243507 -0.313895 
-0.260204 -0.166987 0.119379 
-0.105110 0.026747 -0.081796 
-0.012379 0.173433 -0.178500 
-0.068147 0.012335 0.060104 
0.246801 0.217849 -0.194436 
-0.211882 -0.297800 0.265814 
-0.286651 -0.145761 0.143517 
0.263213 0.248515 -0.245142 
-0.012963 0.367937 -0.200605 
0.052938 0.451391 -0.306065 
0.059251 0.064434 -0.057724 
0.148456 0.118512 -0.210255 
0.259163 0.204715 -0.400948 
-0.116100 -0.176315 0.027290 
-0.000461 0.088670 -0.197835 
-0.145069 -0.024299 0.021814 
-0.241821 -0.100118 0.124782 
-0.228660 -0.265184 0.036212 
0.208942 0.215045 -0.488980 
0.302157 0.344331 -0.167740 
-0.087797 0.037486 -0.114469 
0.154908 0.146047 -0.446593 
-0.303919 -0.245887 0.195026 
0.349297 0.360384 -0.146877 
-0.038924 -0.027494 0.031056 
0.151479 0.135157 -0.197301 
0.346174 0.338598 -0.199400 
0.129017 0.170486 -0.399244 
0.256561 0.214355 -0.120647 
0.075754 0.222291 -0.362714 
-0.124793 -0.047340 -0.068659 
0.038991 0.167554 -0.250699 
-0.021481 0.186692 -0.171465 
0.151898 0.344400 -0.170731 
0.145879 0.265953 -0.429494 
-0.097006 -0.188186 0.060081 
0.005512 0.177369 -0.260742 
-0.028284 0.128713 -0.139345 
0.085930 0.329517 -0.127827 
-0.069400 0.121924 -0.120095 
-0.123983 -0.165654 0.194701 
-0.128508 0.018544 -0.086774 
-0.155963 -0.242424 0.172376 
0.247339 0.168690 -0.351504 
-0.074081 -0.060551 0.032954 
0.123726 0.115546 -0.166292 
-0.143033 -0.199899 0.027066 
0.323744 0.181732 -0.364464 
0.019698 0.279589 -0.158006 
0.144039 0.344145 -0.353362 
0.097208 0.419687 -0.217680 
0.204844 0.455468 -0.151061 
0.014113 0.284436 -0.281086 
0.003645 -0.059333 -0.053960 
0.013372 -0.001886 -0.137841 
-0.048624 -0.101105 -0.115868 
0.101552 0.064169 -0.191176 
0.167989 0.424701 -0.251727 
0.035662 -0.040292 0.033312 
-0.216889 -0.303750 0.230295 
0.270901 0.172206 -0.439929 
-0.256506 -0.367032 0.197870 
-0.295223 -0.323674 0.228388 
-0.043921 0.381103 -0.252373 
-0.044546 0.322940 -0.240221 
0.179298 0.432465 -0.203125 
0.252310 0.201496 -0.253467 
-0.249162 -0.309336 0.282671 
-0.002302 0.459252 -0.263752 
0.028780 0.006060 -0.070050 
0.120738 0.144115 -0.085680 
-0.201200 -0.157880 0.050625 
-0.075129 -0.170965 0.101115 
-0.272900 -0.353125 0.121094 
0.032094 0.047072 -0.144629 
0.105328 0.358920 -0.155251 
-0.105202 -0.075829 -0.086123 
0.050149 0.359548 -0.413246 
0.059786 0.324208 -0.384665 
-0.177156 -0.256721 0.029874 
-0.071052 -0.079164 0.074394 
0.037888 0.262205 -0.314400 
0.157907 0.127223 -0.171384 
-0.180437 -0.177896 0.170921 
-0.197093 -0.246423 0.249320 
-0.340435 -0.159708 0.135121 
0.134343 0.156097 -0.449860 
0.151198 0.125235 -0.192523 
0.136707 0.109152 -0.469443 
-0.264028 -0.264055 0.226622 
-0.181244 -0.061774 0.023773 
-0.066367 -0.053682 0.036595 
-0.147494 -0.273350 0.162502 
-0.038791 0.516913 -0.329534 
0.069145 0.303841 -0.402629 
-0.253214 -0.296708 0.092746 
0.192631 0.117948 -0.504456 
-0.084133 -0.121807 0.065269 
0.006964 -0.006866 -0.096242 
0.256434 0.257866 -0.051524 
0.161193 0.153775 -0.128173 
0.136158 0.130608 -0.225616 
0.327085 0.392196 -0.142933 
-0.124018 -0.197484 -0.038177 
0.049471 0.078291 0.045973 
0.014587 0.425315 -0.212922 
0.090452 0.241162 -0.103740 
-0.178567 -0.048029 0.067886 
0.033081 -0.017886 0.023490 
0.009108 0.064125 -0.171592 
-0.040472 -0.040276 0.068797 
0.194401 0.195231 -0.473619 
0.012577 0.129915 -0.233835 
0.234126 0.354575 -0.263204 
-0.167627 -0.254881 0.068365 
0.214663 0.172649 -0.160632 
0.078223 0.076421 0.015879 
0.315125 0.340180 -0.203936 
0.195325 0.407136 -0.137900 
0.026585 0.353681 -0.161677 
0.152923 0.073949 -0.420310 
0.375221 0.322612 -0.161029 
0.217338 0.260549 -0.068618 
-0.083484 -0.130481 0.027008 
0.312948 0.195933 -0.320014 
-0.082750 0.333475 -0.207133 
-0.238828 -0.265576 0.187009 
-0.268690 -0.234730 0.093800 
0.035721 0.011732 -0.022072 
-0.106916 0.080896 0.047329 
0.111182 0.412812 -0.334324 
0.093617 0.129653 -0.249245 
-0.097442 0.049877 0.024439 
0.012729 0.423138 -0.216835 
0.120771 0.341152 -0.354388 
-0.111574 -0.202938 0.155936 
-0.306250 -0.278756 0.232682 
0.035112 0.438757 -0.239900 
0.223036 0.092370 -0.432271 
0.085009 0.135397 -0.300916 
0.182017 0.376237 -0.325047 
0.117309 0.086984 -0.351416 
0.083852 0.056318 -0.208280 
0.114595 0.093076 -0.107771 
0.286352 0.241802 -0.184623 
0.109377 0.422189 -0.286604 
0.047887 0.094620 -0.187572 
0.057897 0.411945 -0.299903 
-0.077145 0.104703 -0.030380 
-0.250165 -0.288113 0.247728 
-0.230616 -0.156714 0.052274 
0.202788 0.203637 -0.143007 
0.257968 0.220633 -0.114257 
0.028846 0.140799 -0.243058 
0.003194 0.420982 -0.324738 
0.057471 0.376254 -0.426281 
-0.146024 -0.121944 0.082947 
0.296775 0.214134 -0.388085 
-0.081372 0.043783 -0.122008 
-0.116275 -0.184845 0.129065 
-0.101561 0.142099 -0.095530 
0.290729 0.135322 -0.483117 
0.255082 0.217328 -0.107283 
0.003946 0.059531 0.019543 
0.263958 0.099768 -0.481276 
-0.070909 0.062054 -0.109672 
-0.076585 0.068929 -0.115759 
-0.076009 -0.086070 -0.030096 
-0.162945 -0.294420 0.207979 
-0.258396 -0.353710 0.101223 
-0.097074 -0.039844 -0.059320 
-0.069021 -0.212965 0.096813 
0.181494 0.262155 -0.407089 
0.168498 0.172729 -0.530132 
0.025167 -0.005537 0.078435 
0.010357 -0.004166 -0.038728 
0.208596 0.402227 -0.257988 
-0.170900 0.019193 -0.015666 
0.127573 0.177314 -0.093322 
-0.034072 0.365583 -0.295809 
0.306098 0.069919 -0.495762 
-0.119460 0.055213 0.005113 
-0.193310 -0.055687 0.023199 
-0.218359 -0.120189 0.035688 
0.143714 0.107885 -0.210443 
0.344793 0.243604 -0.103681 
-0.298728 -0.209248 0.182091 
0.034455 0.005277 -0.158753 
-0.263098 -0.243009 0.258185 
0.190527 0.105797 -0.369182 
0.095465 0.121157 -0.342483 
0.023619 0.011343 -0.165387 
0.213404 0.146112 -0.216419 
0.217433 0.441866 -0.161801 
0.102768 0.434311 -0.269427 
0.107123 0.168836 -0.389837 
0.031401 0.265288 -0.270467 
-0.190410 -0.038550 0.042787 
0.156691 0.122171 -0.180493 
0.039182 0.369833 -0.181077 
0.050237 0.137707 -0.241713 
-0.251601 -0.111192 0.129472 
0.058916 0.102368 -0.204711 
-0.286694 -0.155292 0.146642 
0.071371 0.400336 -0.217269 
0.017254 0.318975 -0.380200 
0.009944 0.447579 -0.361621 
-0.048346 0.300692 -0.296052 
-0.008955 0.192871 -0.233361 
0.314203 0.257490 -0.329625 
0.050343 0.294773 -0.411980 
-0.012030 0.133920 -0.240324 
-0.161139 -0.032336 -0.098296 
0.113586 0.368243 -0.188650 
0.379873 0.362845 -0.082721 
-0.146445 -0.243995 -0.036937 
-0.060630 0.089146 0.006909 
-0.078426 -0.105878 0.019174 
0.045249 0.351487 -0.322924 
0.179465 0.244376 -0.430605 
-0.251305 -0.260334 0.290904 
-0.187350 -0.075121 0.013973 
-0.226144 -0.076671 0.107532 
0.314415 0.288337 -0.085598 
-0.129726 -0.210947 0.190286 
0.280437 0.230855 -0.246981 
0.009181 0.520217 -0.245725 
-0.237461 -0.357390 0.230061 
-0.078674 0.361386 -0.261845 
0.250124 0.215269 -0.088623 
-0.018979 -0.088438 -0.046342 
0.075047 0.377264 -0.212792 
-0.011534 0.311643 -0.257339 
-0.224223 -0.238088 0.030757 
0.274887 0.209882 -0.164739 
0.038662 0.211114 -0.303365 
0.041102 -0.013502 -0.076109 
0.054253 0.069531 -0.004220 
-0.163942 -0.072907 0.021387 
0.076871 0.046212 0.026040 
0.266344 0.138698 -0.501507 
-0.139312 -0.123885 0.127204 
0.350118 0.355183 -0.141979 
-0.040174 0.108587 0.005616 
-0.229429 -0.101473 0.088508 
0.275572 0.231397 -0.165677 
0.105421 0.437760 -0.233950 
0.308379 0.310768 -0.254223 
-0.311488 -0.386540 0.086684 
0.186362 0.411227 -0.165750 
-0.015810 -0.095342 -0.024256 
0.038505 0.179340 -0.328792 
-0.249351 -0.322952 0.242171 
-0.120399 0.141374 -0.107229 
0.005280 -0.028514 -0.139699 
-0.230236 -0.314487 0.160900 
0.145435 0.311171 -0.138811 
-0.041211 0.504660 -0.336448 
-0.308865 -0.235426 0.186226 
-0.019727 0.154480 -0.079058 
-0.038645 0.342081 -0.236627 
0.126145 0.091444 -0.140629 
0.026285 -0.051269 -0.010405 
0.010584 0.071164 -0.160441 
-0.160013 -0.201021 0.208099 
0.418899 0.321929 -0.121952 
-0.014132 0.175359 -0.245570 
0.198846 0.186816 -0.166304 
0.244448 0.370311 -0.171538 
0.029578 0.109217 -0.175467 
-0.033937 0.081362 0.013951 
-0.202353 -0.142367 0.135839 
0.111541 0.095816 -0.414160 
0.025406 0.192554 -0.212456 
0.033270 0.475893 -0.259293 
-0.207021 -0.304790 0.192435 
0.163023 0.467181 -0.158769 
0.132159 0.394436 -0.238291 
0.200300 0.165813 -0.221619 
0.050220 0.234338 -0.293099 
-0.000487 0.253515 -0.268625 
-0.194364 -0.145106 0.143019 
-0.174819 -0.150435 0.000568 
0.033734 -0.029308 -0.033760 
0.307555 0.299192 -0.253574 
-0.077771 -0.115080 -0.003831 
-0.329661 -0.281205 0.180529 
-0.104741 -0.063862 -0.145725 
-0.285918 -0.236698 0.045538 
-0.232344 -0.129801 0.140972 
-0.007518 0.350049 -0.159251 
-0.122969 -0.201196 0.032905 
0.139451 0.482358 -0.165961 
0.218816 0.222381 -0.044227 
0.238321 0.199076 -0.262908 
-0.229826 -0.108048 0.073613 
0.362589 0.316081 -0.110354 
0.131179 0.107793 -0.117199 
0.234651 0.276538 -0.114315 
0.220465 0.155777 -0.343273 
0.042089 0.484166 -0.267161 
0.003510 0.045179 -0.156260 
0.155215 0.341065 -0.338093 
0.163564 0.183200 -0.514073 
0.224502 0.122026 -0.515185 
0.046911 0.279898 -0.172714 
0.309474 0.232398 -0.340965 
-0.172387 -0.177356 0.116951 
0.277350 0.154175 -0.494153 
0.019770 -0.012864 -0.091796 
-0.089756 -0.050120 -0.142944 
0.146770 0.178582 -0.104483 
0.191509 0.343902 -0.144786 
0.009494 0.241750 -0.229478 
-0.211879 -0.274958 0.206289 
-0.117630 -0.083412 -0.085204 
-0.036336 -0.003908 0.052485 
0.404301 0.348086 -0.091675 
-0.076442 -0.094567 -0.009535 
-0.108467 0.125440 -0.033145 
-0.162500 -0.264612 0.102091 
-0.176744 -0.269865 0.089353 
0.073829 0.295375 -0.186936 
0.228442 0.178218 -0.320986 
0.216186 0.116110 -0.510869 
0.037579 0.083677 -0.194897 
0.084418 0.326400 -0.411709 
-0.118651 -0.202477 0.189605 
0.067055 0.094329 0.013806 
-0.254948 -0.294998 0.249218 
0.173821 0.112932 -0.395302 
-0.210773 -0.097117 0.112293 
0.318714 0.281729 -0.187456 
-0.043173 -0.076227 0.067662 
-0.016958 0.375717 -0.245940 
0.101489 0.111954 -0.304949 
0.040837 -0.012819 -0.061389 
-0.117134 0.022483 -0.105825 
0.201376 0.210457 -0.068323 
0.057289 0.193730 -0.329775 
-0.113848 -0.187363 0.106646 
-0.120962 -0.154246 0.013772 
0.226770 0.412628 -0.223721 
0.266930 0.240867 -0.367715 
0.007729 0.266178 -0.129547 
-0.172124 -0.021371 -0.015090 
-0.065089 -0.126905 0.004844 
-0.265002 -0.111182 0.080150 
0.034496 0.307154 -0.152570 
-0.278832 -0.118940 0.095516 
0.019728 -0.014092 -0.193214 
0.216179 0.173515 -0.222359 
0.322453 0.328607 -0.156496 
0.084270 0.068475 -0.175015 
0.292109 0.257360 -0.202678 
0.199019 0.121895 -0.251325 
-0.066904 0.106105 -0.139270 
0.119346 0.087458 -0.220062 
-0.031376 0.030319 -0.157403 
0.318552 0.358016 -0.085827 
0.107872 0.112521 -0.362719 
0.333563 0.318626 -0.056104 
0.187301 0.354651 -0.286262 
-0.190052 -0.132310 0.154313 
0.014811 0.078983 -0.037460 
0.193737 0.111241 -0.508227 
0.032486 0.307015 -0.150287 
0.146571 0.167991 -0.438850 
-0.013138 0.023163 0.083479 
0.295683 0.275862 -0.054019 
0.185283 0.169474 -0.438552 
-0.091822 0.059159 0.067735 
-0.187766 -0.303113 0.255615 
0.274298 0.158420 -0.440004 
0.033934 0.089255 -0.222201 
-0.201796 -0.239130 0.018431 
0.297138 0.219679 -0.108057 
0.221738 0.160144 -0.243895 
-0.054921 0.194817 -0.119848 
-0.232367 -0.245412 0.080660 
-0.040395 -0.007402 -0.101244 
0.180959 0.149001 -0.184851 
-0.315417 -0.193673 0.161803 
-0.024769 0.414685 -0.204572 
0.019074 0.206708 -0.102263 
-0.113358 0.035799 -0.085824 
0.129998 0.125651 -0.146064 
0.149398 0.186346 -0.489740 
-0.249336 -0.266807 0.054480 
-0.123879 -0.136070 0.103577 
-0.081434 -0.185004 0.133151 
0.205983 0.239454 -0.414738 
0.045889 0.075515 -0.066967 
-0.114026 -0.203214 0.054032 
0.085572 0.242089 -0.113716 
-0.155274 -0.056239 0.069043 
-0.133649 -0.004247 -0.062169 
0.273783 0.329146 -0.257408 
0.244857 0.184556 -0.423075 
0.270872 0.215621 -0.198077 
-0.131968 -0.096284 -0.034751 
0.008230 0.369399 -0.155885 
0.051769 0.011428 -0.133724 
-0.098059 -0.177677 0.043213 
0.031000 0.362338 -0.294532 
0.115971 0.289450 -0.122650 
0.237158 0.337836 -0.171369 
0.181856 0.280175 -0.408906 
-0.133830 0.011076 0.001637 
0.295702 0.376526 -0.216720 
0.206872 0.154227 -0.310645 
-0.378929 -0.254560 0.211483 
0.249642 0.234436 -0.406057 
-0.283012 -0.242034 0.186931 
-0.275511 -0.368730 0.151056 
-0.142038 -0.184750 0.194117 
0.371003 0.358341 -0.045841 
0.156663 0.343299 -0.347361 
-0.220008 -0.164571 0.162207 
0.130820 0.366716 -0.350583 
-0.368061 -0.293883 0.218583 
0.262591 0.138813 -0.387430 
0.279697 0.382101 -0.184299 
-0.071589 0.107588 -0.102424 
-0.046560 -0.085133 0.058837 
0.270789 0.201511 -0.266090 
0.217559 0.397396 -0.260702 
0.076501 0.399220 -0.348994 
0.279422 0.232377 -0.047021 
0.121667 0.073854 -0.153731 
-0.293156 -0.262677 0.141362 
-0.186218 -0.266048 0.078413 
0.000298 -0.061957 -0.012047 
0.073694 0.059424 -0.207274 
-0.177904 -0.171825 0.133162 
-0.098855 0.014066 0.065277 
0.220368 0.438142 -0.169008 
0.106168 0.312483 -0.423945 
-0.025494 0.372417 -0.288963 
-0.186920 -0.357231 0.150187 
-0.023369 0.316124 -0.164629 
0.264592 0.290861 -0.369861 
-0.278191 -0.202140 0.205164 
-0.214135 -0.136724 0.003199 
-0.113199 0.051506 0.038727 
0.120214 0.146828 -0.032543 
0.269350 0.240124 -0.092655 
0.052420 0.020699 -0.041681 
0.217418 0.304473 -0.085148 
0.318427 0.197029 -0.296647 
-0.019375 0.398930 -0.226806 
0.189045 0.331200 -0.320521 
0.063574 0.186817 -0.232230 
0.410941 0.329566 -0.158683 
0.254200 0.157589 -0.140644 
-0.023717 0.469274 -0.340507 
0.320401 0.314351 -0.113395 
0.028625 0.018073 0.053383 
-0.302826 -0.216149 0.198457 
-0.257641 -0.228285 0.099819 
0.159128 0.379720 -0.165354 
0.048251 0.297077 -0.152609 
-0.264028 -0.288900 0.125104 
-0.137369 -0.077136 -0.027414 
0.022751 0.049175 -0.140776 
-0.342036 -0.261645 0.180090 
-0.069692 0.099170 -0.159277 
0.114007 0.161166 -0.066514 
0.158262 0.191680 -0.498624 
0.351384 0.276590 -0.148300 
-0.210022 -0.296095 0.258267 
-0.001361 0.449759 -0.241465 
-0.282374 -0.153589 0.151292 
