-0.0117828995 -0.4331755 -0.055932365 -0.4897144 0.6541475 0.57642937 
-0.17075719 0.047333866 -0.118716285 -0.10285944 0.3391255 0.935101 
-0.1214657 0.059350014 0.08271901 0.21417128 -0.15578891 -0.96429276 
0.2182458 -0.37275326 0.04245039 0.75736463 -0.61849004 0.20944901 
-0.17461297 -0.020677023 -0.08527446 0.5623896 0.7867812 0.25434867 
-0.13506216 0.26572436 0.010221684 -0.86342007 0.48246667 -0.1474166 
0.42439473 0.041254282 -0.057502463 0.9082788 -0.101838335 -0.40578133 
0.22946163 -0.04254706 -0.18197545 -0.93841887 -0.012787366 0.34526297 
-0.07619227 -0.5574634 -0.037925325 0.21375744 -0.74273086 -0.6345539 
-0.27659595 0.04756707 0.05778932 -0.9670002 0.20951736 -0.14495896 
0.35509032 -0.16480175 0.13511044 0.76342607 -0.6315968 0.13515198 
0.19747435 0.02578079 -0.21532936 -0.20831175 0.1495029 0.9665687 
-0.08869033 -0.45418745 0.25965208 -0.25738612 0.7255065 -0.63827324 
-0.03586576 0.19643827 -0.20270461 0.0074878423 -0.3552003 -0.9347602 
0.18780397 -0.12292859 -0.22732584 0.3127234 -0.20171216 -0.928179 
-0.04852283 -0.521594 0.23466215 -0.26027986 -0.95205283 0.16077858 
-0.07947058 -0.48459446 0.122796476 0.2504884 -0.78817654 0.5621684 
0.07853484 0.07875605 -0.057288587 -0.18181713 0.76583713 -0.61679494 
-0.05438146 -0.35518807 -0.0035161413 -0.44503728 -0.7501677 -0.48907074 
0.030513564 -0.41811514 0.27578735 0.26328346 -0.12362924 0.95676416 
0.21890177 -0.009211943 -0.19733171 -0.7126922 0.23482667 0.66100395 
0.01111337 -0.15012139 -0.044313386 0.45733556 0.7984357 0.39159244 
-0.0507819 -0.11030502 0.11429101 -0.5422134 -0.81491095 0.20475546 
-0.052254356 0.32920897 0.06896606 0.7143387 0.32577106 0.61934924 
0.21819846 -0.21282329 -0.16675405 0.35994834 -0.5040113 -0.7851177 
-0.120273635 -0.50775677 0.20158535 -0.40167174 -0.8984748 0.1772085 
-0.05512914 -0.33424228 0.1313383 -0.5088813 -0.83934766 0.1911421 
0.20599845 -0.37490648 0.07679717 0.7126838 -0.6704194 0.20644513 
-0.059394225 -0.473446 -0.05511421 -0.65195405 0.7394964 0.16763338 
-0.19797581 0.043698788 0.08112271 0.40325645 0.5339179 -0.7431796 
0.13624245 -0.050277993 0.25155836 -0.7399982 0.3807285 -0.5544803 
-0.27585155 -0.0035177916 -0.114760846 -0.9867542 0.16207312 0.0069607827 
0.3805148 -0.16247642 -0.0707815 0.6977694 -0.34073183 -0.630095 
0.23240009 -0.12244007 0.020017471 -0.7990277 0.5727272 -0.18313472 
0.33262694 -0.2345402 -0.07608894 0.6503341 -0.51967955 -0.55407465 
0.17252748 0.12213227 0.10931912 0.47276983 0.60117793 0.6442622 
-0.022069514 0.2315986 0.048162013 -0.31979504 -0.5158633 -0.7947429 
0.11942213 0.080602854 0.06941255 -0.604365 0.79648 0.019042566 
0.15349233 0.0708292 0.21357903 -0.5252488 -0.46673474 -0.7115282 
0.122042626 0.10383956 0.008121137 -0.7172548 -0.6741037 0.17643635 
0.38428658 -0.16161329 -0.06683351 0.73066956 -0.3511185 -0.5855235 
0.014799122 -0.38019526 -0.1115071 -0.684341 0.15536238 -0.7124184 
0.24813744 0.33819556 -0.16341348 -0.33037442 0.5281482 -0.7822482 
0.21024835 -0.23753865 0.23817408 0.4113184 -0.1654281 0.89635414 
0.38758254 0.20062156 0.02844958 0.7755558 0.3962154 0.49145353 
-0.12691312 0.22604536 -0.17464684 -0.83218646 0.53953856 -0.12792128 
-0.028436434 -0.033927396 0.14362471 -0.06282268 0.22104782 0.97323745 
-0.17090487 0.02889312 0.08697534 0.19099438 0.2115492 -0.9585239 
0.08897713 0.071015716 -0.012066368 0.50035506 -0.81054854 0.30439427 
-0.36901164 0.17579372 -0.0016171653 -0.645646 0.5543716 0.5251794 
-0.17450453 0.11457676 -0.19203393 -0.27033117 -0.18928036 -0.9439778 
-0.05059959 -0.33825278 0.12558377 -0.4965311 -0.8474536 0.18782786 
0.0434208 0.11654408 0.11033872 -0.5755039 -0.48400018 0.65919584 
-0.061375514 0.2310103 -0.13652757 0.33875638 -0.93894607 0.060203366 
0.40365607 0.1738617 -0.08858921 0.8433874 0.11569461 -0.5247022 
0.4090457 -0.114781655 -0.052821726 0.860869 -0.16897425 -0.47995028 
0.38379157 0.03448791 0.11803738 0.75799733 0.15295905 0.6340691 
-0.27542484 -0.0010095164 -0.11624774 -0.9866494 0.1620559 -0.016152745 
0.304752 0.12028618 -0.1985101 0.5933943 0.07358203 -0.8015416 
0.37083972 -0.075958356 -0.1131967 0.77480245 -0.23526101 -0.5867993 
0.29021657 -0.27186978 0.052592613 0.74374115 -0.6682265 0.01795919 
-0.076442316 0.15396413 -0.15289624 -0.05669257 0.33341372 0.9410745 
0.2244047 -0.36604136 -0.038605276 0.5559131 -0.57733715 -0.5980322 
-0.045019142 -0.30734256 0.00816744 -0.19728854 0.75002515 0.63129985 
0.27464217 0.20025502 -0.16345616 -0.47600248 -0.26895148 0.83730924 
-0.2028719 0.08430955 -0.17752793 -0.5232969 0.1852246 -0.83177656 
0.25681946 0.33163714 0.04802101 0.57873625 0.58849734 0.56456643 
0.24727732 0.21937247 0.102281496 -0.45701626 -0.5685299 -0.68403935 
-0.12113474 0.23102753 -0.19302213 -0.86135894 0.5077092 -0.017091187 
-0.084716074 -0.08298644 -0.061343707 0.32545757 0.7749301 0.54181236 
0.24460493 -0.062206306 0.032529075 -0.7447417 -0.6541091 0.13229169 
-0.22233425 0.1294629 -0.036668733 -0.13791496 0.942631 -0.30401683 
0.3638059 0.12521043 0.10662681 0.7476926 0.29679224 0.5940288 
0.2955799 0.22648697 -0.1624931 0.005427243 0.9389591 0.343986 
-0.09541626 -0.51245636 0.20222202 -0.33592567 -0.9257745 0.1734804 
0.010088569 0.116026446 -0.1756284 -0.06267765 -0.215272 -0.97454065 
0.3733216 0.2280233 0.025968717 0.7318101 0.4535203 0.5086977 
0.020856481 0.19717251 -0.18345946 0.6634676 0.52939254 -0.52872896 
0.02281401 -0.18768293 0.046018835 -0.9755034 -0.21998307 0.00078129064 
0.07012737 -0.56061965 0.08703933 0.749398 -0.60321915 0.27300054 
0.28824174 0.20056109 -0.15314132 -0.7632389 -0.12267349 0.6343639 
0.008811155 -0.2800256 0.28703138 -0.644554 0.4023334 0.6501369 
0.0401387 -0.47762984 0.26599208 0.34223846 -0.041067705 0.9387152 
-0.009251006 0.15362681 0.075279 -0.41815224 -0.6919075 -0.58856833 
0.25276208 -0.31099874 0.09498866 0.862639 -0.49122092 0.12064804 
0.21844321 -0.09861079 0.16493946 -0.817362 0.5531054 -0.16122575 
0.092755735 -0.15564765 -0.055578507 0.5423811 0.72874886 0.41802853 
0.20191102 0.24398892 0.10443101 -0.26122043 -0.63409233 -0.7277986 
0.06130725 -0.13167207 -0.075693175 0.5649144 0.82226753 0.06890421 
0.10186011 0.12721343 0.07289682 -0.31572437 -0.48091042 -0.81795067 
0.044758596 -0.38933676 -0.05742293 -0.76308364 0.57703674 0.29108754 
0.10831886 -0.23010272 0.1643589 -0.62128586 0.10907533 0.77595514 
0.19946033 0.28689063 0.073743165 -0.8343323 -0.23705378 -0.49768978 
-0.24482878 -0.0066175833 -0.15586366 -0.0141418865 -0.38141292 -0.9242966 
-0.18721308 0.018910736 0.036970846 0.55169564 0.81149083 -0.1926515 
0.26488328 0.01734145 -0.22464982 0.46398225 -0.11609937 -0.8782035 
0.28331912 -0.19204602 -0.14059477 0.51929903 -0.45076194 -0.7260456 
-0.0576825 0.0049017593 0.118024744 0.5630226 0.82299143 -0.07543617 
0.016407192 0.19974138 -0.14232706 0.15217867 0.48471722 0.86133087 
-0.1715436 0.14448674 0.10938352 0.35947475 -0.055305213 0.9315145 
0.028174335 -0.29665643 0.008714121 0.0024838438 0.25062913 0.96808 
-0.12821297 0.12466192 -0.1403019 0.42210594 -0.15810202 0.8926535 
0.026397375 -0.2437897 -0.00081354566 -0.5771233 -0.038749166 0.8157372 
-0.35165352 0.17930304 -0.09114609 -0.6548888 0.50317526 -0.5638575 
0.11303697 -0.31814754 0.09373412 -0.7534524 0.63172585 -0.18229613 
0.23063023 0.049809635 -0.038149472 -0.3539904 0.9212108 -0.16143557 
0.13597137 -0.3230514 0.25358778 0.37364465 -0.09837716 0.9223403 
-0.05112671 0.24061362 -0.092082076 -0.2833471 -0.9133199 0.29250842 
-0.012953203 -0.45796847 -0.08460486 0.14595501 -0.5967463 -0.7890443 
0.23640391 0.38008744 -0.023477893 -0.8145531 0.5734771 0.08733425 
0.2600364 0.10452518 -0.08477216 -0.9340985 0.34768978 -0.081066795 
0.07235066 0.09774855 0.011991253 -0.5941886 0.79393256 0.12888384 
0.10339201 0.064463496 0.060613032 -0.7215416 -0.24934731 0.645913 
0.054253217 -0.32398432 -0.11320327 -0.5830592 0.6874988 0.4328826 
0.099286035 -0.31267795 0.26718205 0.2772119 -0.06998582 0.9582565 
0.13928002 -0.16134095 0.17168117 0.014099741 0.027716966 0.99951637 
0.3058852 0.28317088 -0.10792759 -0.6822093 -0.45200878 0.57469857 
0.06532052 -0.17735776 -0.07914078 -0.0539659 -0.49326813 -0.86820173 
0.039420374 -0.39639962 -0.033344418 -0.7855554 0.60502875 -0.12978 
0.21891133 0.22364564 0.11381915 -0.3278339 -0.5548048 -0.76466763 
-0.17664325 0.18130977 -0.052355766 -0.86085635 0.48279402 -0.16073674 
-0.20529525 0.13677403 -0.047699794 -0.7472684 0.6390479 -0.1822298 
0.26135677 -0.29903448 0.08399381 0.79075557 -0.60455126 0.096038505 
0.22002017 -0.11728005 0.09085397 -0.7701193 0.6135168 -0.17468059 
-0.05724769 -0.10328713 -0.0043935664 -0.18108393 0.9679483 0.17402492 
0.25438324 0.18419401 0.16686948 0.42000127 0.4565792 0.78430504 
0.31149 0.36557192 -0.08758132 0.67871344 0.7343738 -0.0065718684 
0.2199931 -0.28527206 -0.10930823 0.35015708 -0.61911 -0.7029174 
0.035840686 -0.22645386 0.068906546 -0.6319249 -0.74840283 0.20140527 
0.427841 -0.0992499 -0.021388654 0.87216645 -0.3033882 -0.3837724 
-0.2931164 0.11676055 -0.05676771 -0.09131891 0.19915295 0.9757043 
0.05259999 -0.24394353 0.1309249 -0.1779969 -0.5983386 -0.78122216 
0.045305252 0.10274772 -0.13640769 0.0047185933 0.34291258 0.9393555 
0.077258855 0.08581725 0.036750693 -0.74154943 0.19653395 0.64146614 
0.23580045 0.27541542 0.11033688 0.4212612 0.57253814 0.70337695 
0.16829364 -0.1324302 -0.22588485 -0.5030719 -0.043542303 -0.86314696 
-0.19213566 0.08232564 -0.058775783 0.7781225 -0.5842931 0.2304929 
0.20750903 -0.102346145 0.20659089 -0.7703495 0.56634116 -0.29294926 
-0.23091103 0.115887865 0.1164162 -0.42592192 0.41694453 0.8029619 
0.3912717 0.07053979 -0.11821276 0.779773 0.009973493 -0.6259829 
-0.03671781 0.26396734 -0.18076736 0.8217323 0.5520031 -0.1415934 
-0.017264448 -0.4466759 0.28812423 0.30184406 -0.060621195 0.951428 
0.09827597 -0.5348706 0.040887937 0.7666834 -0.6340257 0.101034485 
0.04851246 -0.31028312 0.153822 0.03472564 -0.26651052 -0.96320623 
-0.18750307 0.1866811 0.030481733 -0.8432915 0.5166245 -0.14818424 
0.11188245 -0.50063276 0.088159546 0.7818045 -0.59848416 0.17492403 
0.14802504 0.065914825 -0.15191737 0.40351632 0.23913613 -0.8831696 
0.051218934 -0.45785445 0.26414526 0.2519443 -0.093006164 0.96326214 
0.39886183 0.10474062 -0.1062818 0.8258293 0.031783883 -0.5630237 
0.35524088 0.3013397 -0.031436913 0.6931915 0.578447 0.42998207 
0.25111258 -0.2838742 0.19812812 0.73450446 -0.5758112 0.35908863 
0.06001102 0.15087439 -0.18373151 0.31125826 0.21046747 -0.92672634 
0.14786044 -0.1804206 0.21614294 -0.78118515 0.5453308 -0.30391455 
-0.32510072 0.12616727 -0.058913045 0.4061824 0.5469615 0.7320171 
0.3175674 0.28074706 -0.0904982 -0.9215741 -0.10949922 0.3724393 
-0.07581858 -0.1290589 -0.027614325 -0.7035595 -0.6720903 0.23086487 
0.38743967 -0.12403521 0.12586337 0.76912653 -0.60519177 0.20539556 
0.28198314 -0.13543308 0.22104715 0.39375684 -0.033064578 0.91861975 
0.23754108 0.018174194 -0.17854382 -0.9138475 0.3741698 0.15773307 
0.3421244 0.3323866 -0.07904637 0.80257183 0.595959 -0.02667081 
-0.19504668 0.14098708 -0.089305535 -0.86432445 0.48801106 -0.12160765 
0.20291813 0.2592076 0.09105996 -0.4471629 -0.5677442 -0.69116706 
0.43614322 0.10684395 -0.002388684 0.9448918 0.15625717 0.28768578 
0.15864523 0.041552305 0.22775716 -0.8786084 -0.28587535 -0.38252127 
0.123564206 -0.13173711 0.28134957 0.24427852 0.02406191 0.96940655 
-0.080303445 -0.5592855 0.048328493 -0.25052893 -0.93441844 0.25317475 
-0.10098952 0.19136555 -0.10120897 0.7869798 -0.6020589 0.1348624 
-0.07963373 0.3575235 0.055635396 -0.06054569 0.9969571 -0.049099106 
0.1838244 -0.13497303 0.20591295 -0.8135791 0.55323684 -0.17893597 
0.12901784 -0.15780862 0.13638689 0.2145723 -0.17775181 -0.9603973 
0.33657646 0.21932857 -0.15898588 0.68008035 0.1562424 -0.71629536 
0.16633336 -0.031883094 0.23176125 -0.26208523 -0.12716495 -0.9566297 
0.40078688 -0.11711475 -0.06505333 0.78377104 -0.1471901 -0.60335565 
0.0016334113 -0.39692903 0.1356902 -0.79583615 0.5951626 -0.11147345 
0.1273992 0.113403305 -0.1376309 0.7555376 0.5821294 -0.30047998 
0.09575161 0.10398923 -0.11255273 -0.8396961 -0.47894555 0.25597197 
-0.020956434 -0.39118177 0.29501846 0.28111506 -0.20214072 0.9381436 
-0.3439021 0.13535732 -0.10298612 0.07083866 -0.3317492 -0.94070417 
-0.29894567 0.10033311 -0.07685997 -0.23418719 -0.5370961 -0.8103605 
-0.110775754 0.002158828 -0.14120758 0.32607493 -0.12003332 -0.93769246 
0.41698718 0.19185711 -0.01970356 0.86648047 0.33775666 0.36760315 
-0.13054271 -0.46739554 0.14102301 -0.8275282 0.31245172 0.46644512 
0.16809647 -0.11636573 -0.22297883 -0.7912379 0.09615645 -0.6039011 
-0.21512412 -0.03590546 -0.11840813 -0.2780445 -0.8881873 -0.36580682 
0.07966207 -0.15164202 0.127841 0.18592052 0.405737 -0.8948805 
-0.01627506 -0.38704634 0.24413846 -0.73941547 0.51093364 -0.4384194 
0.15001407 0.09463337 -0.11041391 0.705431 0.6888619 -0.16684254 
0.14905745 0.067493945 -0.25599825 -0.80458 0.39728877 -0.4413759 
0.24269256 -0.1212261 -0.0255045 -0.788178 0.60598576 -0.107502066 
0.18283169 0.07237631 -0.0769268 0.6822414 0.69695467 -0.22090937 
-0.07018832 -0.04851352 -0.08650791 0.15592447 0.68626106 0.7104459 
-0.12818946 -0.504986 0.17554513 -0.82933295 -0.5577012 0.034297034 
-0.25406593 0.032980062 0.12182406 -0.1530823 -0.6940556 0.7034576 
0.093208976 0.14143658 0.030912466 -0.9599893 -0.27037102 -0.07293877 
0.26053268 0.018734634 0.22764428 0.46113464 0.1256928 0.8783827 
-0.092536874 -0.54612833 0.07968365 -0.2854402 -0.9390792 0.19145255 
0.25416312 0.017139047 -0.22988051 0.41630456 -0.10023947 -0.90368277 
-0.18354163 0.09768361 -0.046513543 0.79360986 -0.5787929 0.18756913 
0.20866087 0.2282329 0.16177374 0.44139937 0.50154424 0.7440564 
-0.17074941 0.2197916 0.051696386 -0.8210783 0.5349587 -0.19912198 
0.009894198 0.27165395 0.059582658 0.6866798 0.7036599 0.18257499 
-0.2866798 0.10393314 -0.08075176 -0.0049899453 -0.44412094 -0.89595294 
0.043498047 -0.13685283 0.11382019 0.60608894 0.6171012 -0.5018389 
0.09764607 0.1356371 -0.042805754 -0.8542562 0.4442 -0.27006057 
-0.1266946 0.18394436 -0.21523537 -0.3228514 -0.12332814 -0.93838006 
-0.2281593 0.052573442 -0.032635506 0.96478975 0.014531166 0.2626207 
0.16544382 -0.15840766 0.26626366 0.29772636 -0.13931479 0.94443125 
-0.031541 -0.41026396 0.29487705 0.29839936 -0.14060068 0.9440282 
0.3367275 -0.22102092 0.017912526 0.762677 -0.6141476 0.20284598 
0.07464409 -0.5342617 0.1360316 0.89258224 -0.040366083 0.44907406 
0.13280068 -0.12667322 0.15100467 0.64201796 0.7649116 -0.052184146 
0.15019721 -0.026578784 -0.096979104 -0.5390744 -0.36819187 0.757518 
-0.32981205 0.16550826 -0.061867096 -0.16877834 -0.28610098 0.94321793 
0.11785108 -0.25306135 -0.051884793 -0.021249618 -0.5188163 -0.8546216 
0.24158822 -0.14689004 -0.10732481 -0.8460097 0.5102251 -0.15471907 
0.09173758 0.07300201 0.04847332 -0.71094954 -0.5742047 0.4060046 
0.3898322 -0.15311156 0.00824972 0.8407654 -0.49837357 0.21151201 
0.08412506 -0.2490889 -0.04765515 -0.4012396 -0.80376273 -0.43928602 
0.01917814 -0.177297 0.088097736 -0.9913697 -0.13101815 -0.0045011044 
0.39229 0.11355969 0.07745518 0.7434157 0.2456116 0.62209964 
0.251231 -0.057563387 0.0868105 -0.8827251 -0.44909832 0.13822818 
-0.100498796 -0.049664553 0.088450365 0.40095076 0.22968696 -0.88683844 
-0.21077743 0.11800158 -0.07781935 -0.81935084 0.4989937 -0.28225777 
0.16587698 -0.34391803 -0.0909278 0.39763367 -0.58670855 -0.7054506 
0.11928506 0.109265074 0.019886745 -0.63998437 -0.7465614 0.18184093 
0.30367857 0.3340214 -0.0034686718 0.38775724 0.6153364 0.6862984 
-0.32325304 0.14565155 -0.10025944 0.38549337 -0.14050977 -0.91194946 
0.18711662 -0.028318562 -0.04850685 -0.6359976 -0.7664587 0.08971144 
0.23848447 0.3817525 -0.040630147 -0.8130932 0.57491904 -0.09136486 
-0.18110925 0.08382666 -0.10415115 0.7671055 -0.5904513 0.25083134 
0.11929221 -0.2657414 -0.1697728 0.2400281 -0.3604686 -0.9013595 
0.10436076 -0.514394 0.077441886 0.7777944 -0.5831115 0.23455648 
-0.029475562 -0.30331925 0.137292 0.42480075 0.48194516 -0.7663375 
-0.3110811 0.12823156 -0.01728439 0.20740652 0.055560052 -0.9766758 
-0.20131913 0.069801226 -0.06581386 0.72296304 -0.6562913 0.21588457 
0.13288301 0.060153633 -0.11086163 -0.89689887 0.3602184 0.25654465 
-0.11755878 -0.061061054 0.11753375 -0.51658094 -0.7141962 0.47230068 
-0.19920021 -0.0033292472 0.088404246 -0.6540851 -0.74560046 0.1274856 
0.23505768 -0.10366027 0.07425321 -0.74951583 0.6399839 -0.16925314 
-0.09261004 -0.4326384 0.30399966 -0.39658168 0.32653278 0.8579623 
0.05300799 0.17563365 0.09847858 -0.026987726 0.19604047 0.9802244 
-0.14903046 0.22272058 -0.06500601 -0.8463596 0.5190455 -0.119445354 
-0.06346142 -0.35488093 0.008803511 -0.717694 -0.6865517 -0.116456434 
0.2987162 -0.25218117 0.08636759 0.8350664 -0.524883 0.16480906 
-0.025288519 -0.50558347 0.27528676 0.11581177 -0.6055084 0.7873673 
0.41865134 0.18723501 -0.05616954 0.91254807 0.25112686 -0.3227869 
-0.06060928 0.2240747 -0.16204949 0.30309007 -0.8451667 0.44026092 
-0.21382128 0.117575586 -0.07063724 -0.78008705 0.5355354 -0.32352135 
-0.18677363 0.02565796 0.069515124 0.5698867 0.7754325 -0.2719073 
0.23223813 0.040123448 -0.086463064 -0.44829535 0.7635896 -0.46471727 
0.24071962 -0.12151913 -0.16063645 -0.59356326 0.28360486 0.75316066 
-0.019007005 -0.5670663 0.0883576 -0.2559957 -0.9248678 0.28122178 
0.010510581 0.21681158 0.04631678 -0.53828925 -0.5954646 -0.5963779 
-0.056521736 -0.31480896 0.17577578 -0.44038382 -0.4367441 0.78442127 
0.3294431 0.30832392 -0.12286219 0.6136874 0.48135766 -0.6258455 
0.3307045 0.3042664 0.0009286348 0.31182235 0.62194246 0.7182996 
-0.103946924 0.31412268 -0.007671794 -0.86238706 0.48557675 -0.14319138 
0.08629532 -0.46501833 0.25176895 0.40605274 -0.23332964 0.8835601 
0.14072119 -0.21229242 0.091907434 -0.104488276 0.9908627 -0.08528354 
0.29488963 -0.26717937 0.043111295 0.7570568 -0.6506624 0.05918985 
0.0099164955 -0.18093435 -0.07792074 -0.104234114 -0.52751815 -0.84312505 
-0.012023311 -0.26632333 -0.00060509704 -0.44564006 0.5723463 0.6883492 
-0.20572844 0.010158107 -0.048108064 0.5804703 0.79259187 -0.18668778 
0.13178875 -0.48920894 0.015752094 0.6911692 -0.6788151 -0.24798208 
-0.03293865 -0.31263277 -0.022893831 -0.11573019 -0.12432028 -0.98546994 
0.15374246 0.13990822 0.077869475 0.638721 0.7484077 -0.17866564 
0.19019131 0.08514461 -0.21723941 -0.28326178 -0.12137035 0.9513317 
0.11761828 -0.4255739 -0.050300278 0.38605157 -0.58631116 -0.71218216 
0.07450375 -0.37758458 0.0626137 -0.70425093 0.65083086 -0.2836367 
0.44441777 -0.07062982 0.0059898905 0.976631 -0.17112711 -0.1300286 
0.081128016 -0.31511694 0.010589872 0.100450926 0.16456132 0.9812386 
0.0066645015 -0.32160053 -0.01594431 0.061151102 -0.2384811 -0.9692199 
0.24342197 -0.036842898 0.1561035 -0.67310303 0.03391232 0.7387708 
-0.05408354 -0.09515577 -0.06581417 0.42244056 0.526895 0.7375131 
-0.1929275 0.17678632 0.028427236 -0.8536043 0.5003649 -0.14489536 
-0.073068306 -0.5348071 0.14763132 -0.4074432 -0.89836985 0.16407807 
-0.1050338 -0.5061325 0.22360168 -0.19494674 -0.9319629 0.30568102 
0.31173784 0.3414284 -0.0297543 0.5844577 0.74613917 0.31888178 
0.32338268 0.29204816 -0.13988385 0.5429903 0.44298747 -0.7133888 
-0.10560551 -0.51239264 0.048741452 -0.0051395646 0.9640296 -0.26574507 
0.06920996 0.21010421 0.08742771 0.28956485 0.5381858 0.79152274 
-0.2644527 0.106061414 -0.07757045 0.25666162 -0.14698282 -0.95525956 
0.08688435 -0.5300694 0.09964102 0.7954812 -0.59030414 0.13693331 
0.15302926 0.012162469 0.019827066 -0.8035784 -0.5861558 0.10335986 
0.18919185 0.09307557 -0.25918427 0.38521087 -0.0020976125 -0.9228262 
0.20083779 0.07251307 -0.21638677 -0.34110838 -0.12809345 0.9312557 
-0.014657978 -0.14467272 -0.09181977 0.020777635 -0.32767215 -0.944563 
-0.22751133 0.04915373 0.013791789 0.9124049 0.35409698 -0.20526248 
-0.20269379 0.06013453 -0.17677733 -0.08190068 -0.22722833 -0.97039145 
0.39862567 0.051073223 0.094251886 0.8095821 0.17178775 0.5613072 
0.24604185 0.37929803 -0.08593017 -0.9236063 -0.35261852 -0.1503715 
0.1960265 0.28010517 0.1290141 0.008942706 0.6927043 0.72116625 
0.030479625 -0.3777069 0.06514937 0.62058604 0.74923533 -0.23134252 
0.064765275 0.2034796 0.039985985 0.14161268 0.09427701 -0.9854226 
0.2145149 0.1780786 -0.199876 -0.254629 -0.18041036 0.95006114 
-0.13371548 0.1418602 -0.20136315 0.3460717 -0.3384646 -0.8750292 
0.4071024 -0.059072748 -0.07099983 0.8256314 -0.1212962 -0.5510172 
-0.05910039 -0.543146 0.13517033 -0.31458417 -0.9159404 0.24917857 
0.09361184 -0.098481074 0.1457927 0.6209827 0.77895176 0.08726203 
0.106856965 -0.42592883 -0.0557385 0.38025156 -0.59732306 -0.706126 
-0.05207157 -0.10626515 -0.053074367 0.61367077 0.77471924 0.1523757 
0.2414979 -0.009189829 0.1536052 -0.8231287 -0.14936759 0.54785806 
0.18661366 0.18121468 -0.23511925 -0.84959495 0.27195778 -0.45191517 
-0.1543005 0.19900177 -0.11725025 -0.8282032 0.53606504 -0.16344352 
0.09740602 -0.47777247 0.23565356 0.71881574 -0.51739675 0.46433237 
0.27375102 -0.29111958 -0.07514424 0.38526312 -0.6258467 -0.67815065 
-0.101285115 -0.038509272 -0.13126725 -0.11777163 -0.2795317 -0.9528861 
0.22794257 0.072305605 -0.20295064 -0.5175484 -0.047346983 0.854343 
-0.015579481 -0.5175414 0.2628616 -0.096824355 -0.8051475 0.5851175 
-0.015252728 0.14812706 -0.14982441 0.018157296 0.33114508 0.94340515 
0.20063055 -0.3618424 0.16759259 0.78805816 -0.6061957 0.10719693 
0.18851818 0.06374405 -0.08861215 0.67062736 0.7218935 -0.17067128 
-0.03028876 -0.5204603 -0.045276865 0.2834255 -0.63884664 -0.7152237 
0.012512611 -0.17029253 0.06161225 -0.8034205 -0.590741 0.07443545 
0.19373752 -0.34743637 -0.073444866 0.39514112 -0.5625766 -0.72620314 
0.28707314 0.3116783 -0.10516974 -0.5602304 -0.4089846 0.72032875 
0.3945279 -0.1261034 0.08898275 0.7601668 -0.634576 0.13949786 
-0.011976734 -0.045627356 0.14763346 -0.05416831 0.38577056 0.92100316 
0.40056974 0.1779186 0.024932574 0.81390786 0.36014444 0.45590565 
0.41590422 0.08876279 -0.07853281 0.8964157 -0.01081516 -0.44308224 
0.028737228 -0.3294744 0.017108379 -0.021495081 0.21868433 0.9755589 
0.2617091 0.10371855 -0.22579008 0.44618368 0.013173328 -0.8948445 
0.381539 -0.06848582 -0.10197115 0.77700365 -0.22772294 -0.5868625 
0.032752622 -0.5373791 -0.009487947 0.36545277 -0.5313767 -0.76425326 
-0.14635824 0.14687425 -0.046735622 0.80318993 -0.5687396 0.17726034 
-0.24086966 0.124305785 -0.05800873 0.57685906 0.590497 -0.56439966 
-0.09617399 -0.07026438 -0.117229596 -0.041970417 -0.47732356 -0.8777247 
0.1318946 -0.48794156 0.012871691 0.6409554 -0.68217576 -0.35186994 
0.3772121 -0.09309895 0.15332423 0.71835566 0.0036084524 0.6956667 
-0.006681867 -0.13353854 -0.052202225 0.5276046 0.56724113 0.6323535 
0.38860917 -0.054976437 -0.09788748 0.78177756 -0.2069998 -0.58819634 
0.057151355 0.14158279 0.10821024 0.15789512 0.39372942 0.90556407 
0.40162826 0.025206678 -0.102095485 0.8335497 -0.10126791 -0.54308355 
-0.05822794 -0.35643083 0.036369465 -0.6279379 -0.7353866 0.2547558 
0.22172138 0.19258915 0.17597981 0.34099698 0.39450094 0.8532819 
0.43566006 -0.08695285 0.034200005 0.8290629 -0.5027713 0.24469519 
0.2426511 0.14988059 -0.22668698 0.42232615 0.0032520131 -0.9064381 
0.21752384 -0.3761127 0.035042286 0.75985074 -0.61832887 0.20073918 
0.10707422 -0.2598617 -0.041507144 -0.384512 -0.7977632 -0.46446136 
-0.14913195 0.12559816 -0.10859765 0.7845595 -0.6122688 0.0979459 
0.20741588 -0.058582637 -0.19742115 -0.4480444 0.2571165 0.8562402 
0.2984749 0.17010121 -0.19304086 0.52425313 0.14775933 -0.8386452 
0.21545607 -0.06369673 -0.23108932 0.37228522 -0.2765195 -0.8859688 
-0.09537926 0.24234878 0.08574388 0.34217545 0.056852497 0.93791455 
-0.17085113 0.12205565 -0.018934071 0.80396456 -0.571018 0.16607088 
-0.15171193 0.1641349 0.0280147 0.78788966 -0.5959841 0.1550255 
-0.1268075 -0.47793716 0.14811257 -0.69107777 0.21856813 0.6889409 
0.24125768 0.02673439 -0.17581095 -0.92624325 0.33817756 0.16646133 
0.10638864 -0.18648416 0.28204095 0.29927826 -0.20720758 0.9313955 
-0.18272218 0.19455291 0.030759959 -0.8456573 0.51342195 -0.14581358 
0.3405128 0.3070637 -0.01481751 0.6773101 0.6394015 0.36389112 
-0.08039324 0.1347616 0.08287071 0.64106804 -0.7674051 0.01100682 
0.2511972 -0.13225792 -0.1271492 -0.960432 0.27822292 -0.012744374 
0.28144044 -0.29310137 0.02031493 0.7452148 -0.5900061 0.3107211 
0.275604 0.13318716 -0.12238751 -0.93121564 0.34409955 -0.120137334 
0.035200626 -0.3580029 0.1506909 0.67722964 0.572571 -0.46208492 
0.21072878 -0.2181796 -0.16674305 0.34408504 -0.48057994 -0.8066278 
0.046603993 -0.22668584 0.2622273 -0.68437517 0.5181692 -0.51296324 
-0.21884342 0.0999929 -0.08701823 -0.81206083 0.5416323 -0.21723631 
0.0781789 -0.16545755 0.26332924 -0.8645122 0.2814055 -0.41644874 
0.21852587 -0.09767237 -0.2190076 0.37597284 -0.24048111 -0.8948817 
-0.24170776 0.10774277 0.0575568 -0.8787285 0.43199372 -0.20302124 
-0.0336622 -0.28781784 0.17963082 0.109137334 0.20901465 0.9718034 
-0.2568946 0.011032611 0.048355415 -0.42603314 -0.8768314 0.22285075 
0.3693093 -0.18045601 0.0011748355 0.6723988 -0.68096036 0.29012555 
-0.116902456 0.2518161 0.09443969 0.22300795 0.047599487 0.9736538 
-0.005198259 -0.370669 0.1066928 -0.5483051 -0.79798704 0.25015634 
0.022312947 -0.2321063 -0.0039283484 -0.828694 -0.019944463 0.5593465 
-0.23375444 0.11100502 0.029255927 -0.8198621 0.5706892 0.046259772 
0.021381412 -0.42922205 -0.09012412 0.3010957 -0.63934696 -0.7075146 
0.3144781 -0.27075154 -0.044740237 0.74519557 -0.66128206 0.08596279 
-0.08458922 -0.4791448 0.17580582 0.02036729 0.9908899 -0.13312536 
0.096072726 -0.112130255 0.13028696 0.25394434 0.35194823 -0.9009133 
0.1815406 -0.0055329427 0.22304738 -0.20569444 -0.16254173 -0.9650233 
-0.04607264 -0.29124594 0.18063062 -0.07444175 0.15338847 0.985358 
0.25168306 0.18379943 -0.2202294 0.47873944 0.08841221 -0.873494 
0.037807897 -0.13809237 -0.09472334 0.06265653 -0.21661685 -0.97424394 
0.11493181 -0.4711463 0.18513547 0.7858069 -0.6097688 0.1033903 
-0.24269055 0.13771485 -0.01963517 0.57047373 0.7523173 0.32951242 
-0.0980932 -0.45707822 0.13305409 0.3554126 0.7999662 0.4834624 
-0.13764212 -0.036462996 0.083353445 0.22142778 -0.40217063 -0.88838536 
-0.06871542 -0.13663673 -0.03632721 -0.5412574 -0.82061154 0.18340425 
-0.043876097 -0.31884152 0.04589242 0.65379685 0.7326841 -0.18900734 
-0.347813 0.11283225 -0.082623996 -0.021093743 -0.8484587 -0.5288411 
0.16466665 0.21434821 0.18460529 -0.0012040449 0.71386456 0.70028275 
-0.059561126 -0.28044084 0.17349318 -0.5356689 0.44757906 0.71605295 
-0.08501246 0.097993374 -0.17286573 0.011567868 -0.25108743 -0.96789527 
0.22979587 0.081588194 0.22415577 0.289462 0.3569597 0.88813937 
0.2602976 -0.27506828 -0.09580795 0.40255505 -0.5963536 -0.69448674 
0.31869054 -0.26122963 -0.027920607 0.7881095 -0.5793669 0.2078879 
0.03935585 -0.5141349 0.13680965 0.71719444 -0.6651608 0.2078298 
-0.26371557 0.07595788 0.07413917 -0.7972624 0.57268625 -0.19079612 
-0.227821 -0.033887383 -0.11337346 -0.1780548 -0.9839239 -0.013790641 
-0.046606764 -0.10942532 -0.054012023 0.43184343 0.8729318 0.22693922 
0.27986413 0.1605934 -0.16642235 -0.73312485 0.02751603 0.67953724 
-0.18020567 0.03369564 -0.15547408 0.31352454 -0.54804593 -0.7754663 
0.20447433 -0.35783017 0.1626201 0.7801654 -0.6118903 0.130124 
0.0094780885 -0.46129948 0.27801332 0.32388783 -0.061681982 0.9440826 
0.34215927 -0.008664623 -0.16202223 0.6943832 -0.09674868 -0.713072 
-0.08340496 -0.4454286 0.30847684 0.05621389 0.06609509 0.99622864 
-0.3460434 0.1256475 -0.09764184 -0.004161698 -0.62141675 -0.78346914 
0.028625732 -0.5280165 -0.017070815 0.3118497 -0.50927305 -0.8021164 
-0.12382129 -0.46511966 0.14516655 -0.44472104 0.58717114 0.6763529 
-0.017876953 -0.09271866 0.1009215 0.55848044 0.6943647 -0.45382512 
-0.16987751 0.025600418 0.08624833 0.253864 0.4344151 -0.8641971 
0.03095244 0.14965658 -0.18790168 -0.018408405 -0.2187445 -0.9756085 
0.058707967 -0.2989546 -0.019041982 0.1394307 -0.20881927 -0.96796364 
0.15075527 0.018161856 0.038579676 -0.71368414 -0.70028704 0.015905734 
-0.05875598 0.34255767 0.015395317 0.57112354 0.8007653 -0.18053505 
0.24955513 -0.3204403 -0.06323233 0.3826481 -0.6147021 -0.6897258 
0.39615476 -0.14653948 -0.059460066 0.8212845 -0.323591 -0.46987304 
0.27151507 0.25730556 0.10376907 0.47387004 0.5692433 0.67186993 
-0.057211705 -0.5550253 0.09388254 -0.24772342 -0.93579215 0.25085098 
0.10950289 -0.16703749 -0.06584175 0.60880035 0.75723296 -0.23655938 
0.35683852 0.22077553 0.054339904 0.6995043 0.47216985 0.5364227 
0.23559223 -0.32149825 0.14149345 0.7537179 -0.6427181 0.13719606 
0.09871764 0.041581675 -0.06144984 -0.54709417 -0.6712806 0.50007033 
0.33647257 0.2381938 -0.1517087 0.529619 0.41526636 -0.73963344 
0.059397437 0.08553593 -0.13020071 0.06433568 0.37467778 0.92492026 
-0.09299013 -0.041835442 0.09603296 0.50878227 0.3609381 -0.78157806 
-0.2422532 0.064463496 -0.08215986 -0.86380565 0.4121782 -0.28973952 
0.21100852 -0.35453236 -0.057738096 0.4382534 -0.5511306 -0.7100627 
0.18449515 -0.1374092 0.19226153 -0.79947937 0.5879456 -0.123096384 
-0.16036952 0.13268533 -0.030517235 0.7909204 -0.57796395 0.20100412 
0.356179 -0.0020441413 -0.14865503 0.723428 -0.12539425 -0.6789169 
0.2890609 0.026925154 -0.20962831 0.539502 -0.089766935 -0.83718544 
-0.067672536 -0.46170777 0.22585058 -0.6500301 0.74439836 -0.15274799 
-0.02803624 -0.51416427 0.11668505 -0.14624773 0.18851352 0.9711201 
0.002501458 0.21569993 -0.18714613 0.66074955 0.47481176 -0.5813465 
0.21457148 -0.03982955 -0.1280536 -0.103504926 -0.31852928 -0.9422451 
0.080323905 -0.34300208 -0.03545874 -0.7769405 0.60335773 -0.17978567 
0.013275847 -0.28257665 0.0059203645 0.06292585 0.21395785 0.974814 
-0.26469672 0.07664505 0.07983433 -0.803093 0.55534035 -0.2159599 
-0.086654104 0.23947634 0.0018916316 0.7830868 -0.6059842 0.13985077 
-0.09612006 -0.00906457 -0.12105781 0.9044721 0.42419887 -0.044559497 
-0.066474035 -0.31416 0.057255942 -0.5112313 0.8535468 -0.100500934 
-0.16453435 0.22399502 0.036128774 -0.8528102 0.49171558 -0.17587082 
-0.26105714 0.06952447 0.12714376 -0.41643107 0.19940047 0.8870314 
-0.07083801 -0.09040911 0.12717643 -0.5876221 -0.71589243 0.37709185 
0.28280193 -0.2574157 0.15599611 0.78071094 -0.5958434 0.1883111 
0.22660829 0.038633704 0.14978519 -0.9746545 -0.15616542 0.16019052 
0.26163906 0.09551333 -0.17481647 -0.9080218 0.3116485 0.27994937 
-0.16651152 0.23280989 0.06864361 -0.839475 0.5139641 -0.17641622 
-0.058483288 -0.50728226 0.14316532 0.34613433 0.49457934 -0.7972342 
0.076828495 -0.3325112 0.1519496 -0.400094 0.23910807 -0.8847328 
0.035210185 -0.23629999 0.2771541 -0.75840247 0.6251375 0.18446895 
0.09331547 -0.20776007 -0.018867977 0.5173377 0.84021467 0.16248399 
-0.13769032 0.19664346 -0.206109 -0.81836265 0.3180513 -0.47867098 
0.09166959 -0.2510935 0.1647473 -0.30737808 0.41802508 0.85485303 
0.28406185 0.26719588 0.04242538 -0.51972765 0.02007103 -0.85409623 
-0.27079254 0.00805144 -0.014150135 -0.8457472 -0.47324282 0.2464812 
0.17967458 -0.31297415 -0.108059466 0.42005318 -0.55663514 -0.7167375 
-0.08941064 -0.0467155 0.14009103 -0.09660113 0.070497766 0.99282336 
0.29894185 0.30970973 -0.003595531 -0.32149607 -0.46728238 0.8235821 
0.20951621 0.2854417 0.11851002 0.35289273 0.6174288 0.7030281 
0.24582289 0.06913181 -0.06740434 -0.91060674 0.40310568 -0.09111056 
0.31546563 0.20315374 -0.17864253 0.53295237 0.21081628 -0.8194622 
0.15001427 -0.36023754 -0.08787122 0.4396483 -0.5348126 -0.7215849 
0.4276874 -0.09370626 0.04514287 0.7533091 -0.6067306 0.25377828 
-0.015000973 0.17790003 -0.19616282 0.01771724 -0.30036896 -0.9536585 
-0.12312454 0.15562898 -0.20396748 0.21007174 -0.4110073 -0.887098 
-0.085061535 0.28458917 -0.21008895 -0.566227 0.7980311 -0.20623605 
0.03084678 -0.3211531 0.2883005 0.3008872 0.021205394 0.953424 
0.0010945778 -0.3400761 0.11515119 0.6126658 0.7839081 -0.10064143 
0.10501226 -0.2906194 -0.021492172 -0.6543735 0.1284593 -0.7451802 
0.06836042 -0.32876727 -0.14219782 -0.24114399 -0.47649804 -0.845458 
0.4101649 -0.08244873 0.1106837 0.89673245 -0.024011068 0.4419213 
0.06416024 -0.25242925 0.24543408 -0.30345842 0.28995767 -0.90765494 
-0.20883219 -0.02650579 -0.015318133 -0.5598472 -0.82069993 0.11411741 
0.24355032 0.20264949 0.16021486 0.37021366 0.5207351 0.7692703 
0.13135222 -0.007052347 -0.098668456 -0.4473953 -0.4007201 0.7995379 
-0.119568035 0.011783674 0.094462715 0.0005448191 -0.11712697 -0.9931168 
0.23887347 -0.074020706 -0.03966648 -0.6400097 -0.70539093 0.30464938 
-0.17610088 0.0039748326 0.01899031 0.8562922 0.45509738 -0.24423358 
0.017182767 -0.15006772 -0.009024998 0.5893837 0.77169764 -0.23897614 
0.22026214 -0.15042883 -0.19934393 0.33600885 -0.40340024 -0.8510971 
0.33350646 -0.092734575 0.19082595 0.56942713 -0.021709347 0.8217551 
0.28033912 0.19363345 0.14478964 0.497462 0.46085522 0.73494494 
0.009109391 -0.40605378 0.04044583 -0.99773806 0.06676236 0.007847917 
0.11145716 -0.29475233 0.027130088 -0.66733384 -0.6732092 0.31851992 
0.27161905 0.14681083 -0.046902433 -0.9449426 0.32326388 -0.050832957 
0.048638124 -0.14802997 0.097555555 0.59947824 0.7846195 -0.1581077 
0.11430829 -0.17229177 0.17115565 -0.15178333 0.09748958 0.98359424 
0.34873742 -0.078619696 -0.13912745 0.7087219 -0.21457785 -0.6720637 
0.1806907 -0.20148459 -0.024107035 -0.65826946 0.75203115 -0.03362176 
0.019355796 -0.09275798 0.11819694 0.027171716 -0.11063881 -0.9934892 
-0.05993619 -0.50793475 0.11752095 0.17486377 0.6503458 0.7392381 
0.10639468 -0.22209999 0.16293444 -0.5709967 -0.10050758 0.81477666 
-0.20166075 -0.0047082976 0.07425467 -0.61291724 -0.74911815 0.25130546 
-0.09448235 -0.54613364 0.07688314 -0.25373438 -0.9419576 0.21985161 
0.43977535 -0.07571305 -0.006729139 0.9161889 -0.22944579 -0.32856128 
0.041934103 -0.35847372 0.15816443 0.59457123 0.569516 -0.56757075 
0.09623615 0.06767024 0.09195735 -0.25636873 -0.8246632 -0.5041881 
-0.17717622 0.12680376 0.017834535 0.7594305 -0.60810775 0.23123622 
0.089907035 -0.3122016 0.010135132 -0.06468539 0.15132678 0.986365 
-0.02600041 -0.082074076 -0.11483134 0.3818122 0.30860168 -0.87119716 
-0.06259277 0.34335232 0.007508396 0.35520202 0.90426236 -0.23694122 
0.05850395 -0.22495498 0.28917715 -0.10847295 0.1402217 0.9841603 
0.3439558 -0.19764651 0.061645623 0.7937838 -0.5853533 0.16513272 
-0.22658734 -0.02439129 -0.061830178 -0.1614266 -0.9679614 0.19233376 
0.14485037 -0.29982555 0.252649 0.33499753 -0.08504475 0.9383731 
-0.002120506 -0.17115974 0.008425422 -0.5774496 -0.7747555 0.25749925 
0.11847694 -0.16463111 0.1712047 -0.10520132 0.007132861 0.99442536 
-0.21395151 0.008883558 -0.07818009 0.5845325 0.79602015 -0.15707843 
0.014672508 0.19401266 0.094927706 -0.038969807 0.10333212 0.9938832 
0.13335213 -0.21218921 0.085327744 0.19492437 0.9776257 -0.07907225 
0.20563494 -0.050176397 -0.05759883 -0.7211683 -0.5987091 0.34851646 
-0.23196502 0.11669861 0.015912632 -0.6903768 0.66435814 0.2863707 
0.12724917 0.08748257 0.053770434 -0.743473 0.6681775 0.028049462 
0.17143266 -0.11914846 0.26801607 0.22290936 -0.05062253 0.9735239 
-0.05534096 -0.5199865 0.23293532 -0.27764735 -0.93920875 0.20198728 
-0.0894181 0.2268429 -0.034591712 0.8291328 -0.53962475 0.14609562 
-0.19806576 -0.0015709549 -0.07366946 0.60026264 0.78190655 -0.16824654 
-0.054937728 -0.40355957 0.26253113 -0.44095367 0.28690204 -0.85043937 
0.14810954 0.06269944 -0.25790414 -0.7524566 0.35437167 -0.5551844 
-0.2809406 0.1408961 0.0052606 0.25276104 0.46816596 0.84671867 
0.115678005 0.08343768 0.050239794 0.09025574 0.9908645 0.10020679 
0.27440372 0.15011187 -0.072120585 -0.933553 0.34388435 -0.10110586 
0.36062694 -0.15298566 0.15404087 0.8124579 -0.5270007 0.249364 
0.17310946 0.10976812 0.1938249 -0.16861895 -0.38146684 -0.9088733 
-0.21107675 0.1422028 0.014192199 -0.8566653 0.51164424 -0.06591478 
0.25446802 0.12558998 0.042216897 -0.94066083 0.33177477 -0.07129279 
-0.34407622 0.19941919 -0.07536478 -0.74922925 0.62545043 -0.2178698 
-0.18412824 0.14073727 -0.15034391 -0.8276757 0.547767 -0.12208288 
0.18258022 0.10475342 -0.21707338 -0.284704 -0.06470775 0.95642906 
-0.22246136 0.08796124 -0.105776936 -0.8392367 0.5222415 -0.15147825 
-0.13676059 0.26332062 0.09373893 -0.3262062 0.26511624 0.9073604 
0.09026314 -0.2512569 0.22737858 -0.74516654 0.5301762 -0.40452445 
-0.3092863 0.18570088 -0.0076424517 0.6322447 0.42201003 0.64974934 
-0.08631966 -0.45699924 0.3085753 0.106818326 -0.1412058 0.9842006 
0.3369763 0.07038249 -0.17681803 0.69768345 -0.09825099 -0.7096369 
0.27789497 0.3055532 -0.11600229 -0.5484059 -0.43096128 0.7166054 
0.2012041 -0.27419242 -0.12950064 0.39267653 -0.6289489 -0.6709906 
0.22254677 -0.33585447 0.15499717 0.7883809 -0.6040409 0.116576254 
-0.11638634 0.071357235 0.08445397 0.6938451 -0.06573648 -0.71711767 
0.25074184 0.05608754 -0.17554484 -0.94504094 0.22050276 0.24140456 
0.06900908 0.06947547 -0.05520483 -0.91387993 -0.0109450985 -0.40583703 
0.33759576 0.10365255 0.14643501 0.691682 0.32624733 0.6443126 
0.34507507 -0.19609684 -0.09222008 0.66659886 -0.30299887 -0.6810563 
0.093700595 -0.3512898 0.0667503 -0.78952855 0.57499975 -0.21452263 
-0.12502219 -0.53870034 0.049075156 -0.7373882 -0.6658294 0.11370956 
-0.010407083 0.24622129 -0.099058546 0.99947584 -0.03013652 -0.0118269315 
0.050201923 -0.31857085 0.015159845 0.026910044 0.26869705 0.9628488 
0.24586844 0.12505518 0.10762829 -0.9207204 0.36950022 -0.1254732 
0.29043412 -0.062123835 0.21786717 0.55699056 0.023970557 0.83017284 
0.37127775 -0.074036956 0.15819624 0.6947825 0.056808706 0.7169729 
0.24115686 -0.03503889 0.20087296 -0.7799327 -0.025359958 -0.62534946 
-0.38365388 0.14901093 -0.06506563 -0.78744006 0.6060632 -0.1123633 
-0.09344437 -0.50770307 0.22969471 -0.33619002 -0.90154725 0.27237624 
0.22264092 -0.28343487 0.22419368 0.45446038 -0.18018417 0.8723528 
-0.032732457 -0.47522533 0.021926083 -0.75506234 0.6384056 -0.14939581 
0.1290352 -0.44252497 0.22325316 0.769941 -0.5454423 0.33118522 
0.15608856 -0.13256171 -0.20841387 -0.9469871 0.31078097 -0.08142894 
-0.11112243 0.20446156 -0.012073047 0.8046848 -0.5562086 0.2076399 
0.058160048 0.053411797 -0.12507145 -0.24032366 -0.31675047 0.91755855 
-0.17454933 -0.010320261 -0.0321946 0.71148294 0.7002727 0.05839634 
-0.06620643 -0.48174936 0.14353374 -0.70854235 -0.045412783 -0.7042055 
0.37849975 -0.13874876 0.11428067 0.78910697 -0.5901224 0.17048676 
0.36960262 -0.15644456 -0.084573455 0.6601168 -0.30863 -0.68483084 
0.1449138 -0.34570986 0.24643624 0.42445096 -0.17082249 0.8891912 
-0.11001158 -0.53124934 0.11695283 -0.28718844 -0.9189068 0.27043134 
0.03700279 -0.5534151 0.1580557 0.030248616 -0.6422628 -0.7658874 
0.079824775 -0.43876296 0.25690687 0.33745185 0.009494876 0.9412949 
0.19801725 0.06725693 -0.21794261 -0.18781674 -0.079472624 0.97898364 
-0.23480089 0.091434136 -0.010907456 -0.62983835 -0.3103623 -0.7120245 
0.043882035 -0.1305125 0.16136701 0.07105185 0.14186211 0.9873332 
0.2120501 -0.03079741 0.12972929 -0.68838537 -0.7152819 -0.12040501 
-0.10306203 0.061362326 -0.12651674 0.41314152 0.05364731 0.9090853 
-0.087828204 0.18825094 0.09317887 -0.0289831 0.17986523 0.9832642 
0.29371256 -0.14815757 0.21539874 0.43589553 -0.06342451 0.8977597 
0.010569828 -0.26743653 0.17189103 0.1324918 0.18407667 0.9739413 
0.2663748 -0.29352653 0.08214159 0.72291213 -0.6831969 0.10315051 
0.14150666 0.015836336 -0.02037768 -0.5725161 -0.7968912 0.19284628 
-0.20664176 -0.032718714 -0.05238308 -0.6237367 -0.76020956 0.18175241 
-0.3857702 0.15358251 -0.03500996 -0.68879414 0.6584462 -0.30333358 
0.085075706 -0.25471482 0.13290656 -0.35491893 -0.7277061 -0.58692116 
0.24604492 0.052732542 -0.18669385 -0.8817829 0.13870877 0.45079795 
-0.14001024 0.20225205 -0.19527179 -0.8027282 0.5454521 -0.24105898 
0.4386577 0.04017593 -0.029833652 0.9153432 -0.027135894 -0.40175912 
-0.057315014 0.086082354 -0.14589578 0.44775796 -0.7309466 0.51500475 
0.31885618 -0.09354328 -0.16168466 0.620531 -0.28435943 -0.73080844 
0.025229402 -0.3476478 0.28805718 0.31314352 -0.13351895 0.9402733 
0.06168926 -0.21429154 -0.06462997 -0.08561103 -0.34921977 -0.9331218 
-0.0039387494 -0.34732693 0.024849538 0.1877219 0.6887864 0.7002384 
-0.3054577 0.13657466 -0.09069203 0.38937455 -0.12050288 -0.9131629 
-0.31171376 0.15017553 -0.026178993 -0.11465814 -0.77425826 -0.6223967 
0.39274287 -0.12260635 0.10946853 0.7618977 -0.61571795 0.20100579 
0.22211397 -0.36209732 0.05715447 0.7988522 -0.5564681 0.22842583 
0.019878695 -0.38257205 0.28274634 0.1724965 -0.17702304 0.96897256 
-0.0070458055 -0.14696138 -0.090985775 0.009361132 -0.29595435 -0.9551562 
0.016057644 0.14349483 0.07163 -0.13380612 -0.46313027 -0.8761314 
0.24227819 -0.0263969 0.19738281 -0.82333636 -0.14704391 -0.54817456 
0.016076947 -0.20569187 0.12126775 -0.52447647 -0.5085887 -0.6828338 
-0.070019335 -0.065303266 -0.11948368 0.17555395 -0.33684453 -0.9250495 
0.28249317 0.28844744 -0.16603236 0.8085216 -0.2756257 -0.51992613 
-0.11354865 0.11488542 -0.14062038 -0.021267742 0.27297518 0.961786 
-0.16660044 0.21483974 0.100778185 -0.42884552 0.3131694 0.8473585 
-0.1418911 0.21998088 -0.111739814 -0.8176335 0.55062747 -0.16818109 
0.32237738 0.34524512 -0.10530509 0.6946783 0.43924204 -0.5696389 
0.026578618 -0.3505453 0.2871231 0.3221761 -0.17009786 0.9312729 
0.07805233 -0.43800616 -0.059973605 0.38795277 -0.59276193 -0.7057803 
0.33046877 0.033885755 0.17438841 0.62626266 0.22273073 0.74711853 
-0.08167115 -0.054794617 0.14226243 -0.112126015 0.22952944 0.9668216 
-0.10743521 0.3200981 0.032554824 -0.85966384 0.4861301 -0.15702097 
0.27749407 0.37707043 -0.12766172 0.650973 0.420706 -0.6318549 
0.17599687 -0.12530336 -0.18646 -0.2685227 0.35626188 0.89497095 
0.26258153 0.24266966 0.120671324 0.4225171 0.5524557 0.7185207 
0.04926975 -0.38327873 0.08171863 0.12948982 0.98839694 -0.07939677 
0.05371465 -0.46609426 -0.050311297 0.31401566 -0.53625983 -0.7834664 
0.35794836 -0.19033048 0.01034134 0.82393515 -0.5468732 0.14852788 
-0.015567351 -0.09390284 0.15279377 -0.10925969 0.09814566 0.98915607 
0.2380895 -0.33283675 0.07708326 0.7675106 -0.6296332 0.120372534 
0.30025214 -0.2846281 -0.058210373 0.6705459 -0.7002159 -0.2450836 
-0.12706275 -0.0013128743 0.13044728 -0.062334504 0.20704716 0.9763431 
0.08358872 -0.30072474 0.2728027 0.33721688 -0.095493294 0.9365713 
0.029201748 0.13936254 0.108737774 -0.26568684 -0.095359236 0.9593316 
-0.12695195 -0.50134295 0.20926431 -0.7709249 -0.6229502 0.13269432 
0.12689555 -0.2245136 -0.18961172 -0.20219906 -0.49810627 -0.84321153 
0.14762458 0.11942363 -0.020563036 0.7152026 0.67391455 -0.18526849 
0.13404801 0.0031727254 -0.08971197 -0.52088386 -0.616853 0.5900613 
0.05835902 0.17561634 0.057115868 -0.42779815 -0.6924386 -0.5809626 
-0.11579484 -0.45892859 0.30639964 -0.4309344 0.30429846 0.84952813 
0.27490306 -0.17922631 0.219997 0.42619792 -0.13484165 0.8945239 
0.07266359 -0.19125038 -0.073977344 -0.18235725 -0.37765408 -0.90781236 
-0.010424923 -0.25145096 0.16953442 -0.048578165 0.3032167 0.9516826 
0.2873146 0.24247624 0.047672372 -0.8140408 -0.21417035 -0.53987837 
-0.12902443 -0.4932812 0.22262976 -0.9281099 -0.36476573 0.07455204 
0.2985031 0.32544947 -0.06945934 -0.6414739 -0.74709815 -0.17422858 
0.19072989 -0.28108388 -0.12917829 0.37386662 -0.62639177 -0.6840008 
0.073687434 -0.5334582 0.13701946 0.42805064 -0.031067515 0.9032206 
0.14209837 -0.4408971 0.1482533 0.78047484 -0.57109195 0.25438765 
0.44532627 0.036887586 0.0071449243 0.9846389 0.060976293 0.16360961 
0.10147539 0.10289286 -0.07506018 -0.7788481 -0.616109 0.117495984 
-0.29579663 0.1825356 -0.06790147 0.8251731 0.50105876 -0.26082468 
0.35846573 -0.032676592 -0.14197123 0.7125473 -0.14863676 -0.6856993 
0.30605644 0.25080293 -0.02111141 -0.9206382 0.36341333 -0.14267477 
-0.030125652 -0.51210445 0.11597054 -0.14880349 -0.039163835 0.98809093 
-0.0438795 -0.2622785 0.1699912 -0.37741104 0.635311 0.6737513 
0.39033002 -0.16713738 -0.04936815 0.8500687 -0.49587315 -0.17746279 
0.11838862 -0.087088615 0.25292748 -0.7641087 0.29728922 -0.57250065 
0.0595003 -0.20617975 0.2630409 -0.7991802 0.44359547 -0.405628 
-0.19809939 0.037115097 0.07422067 0.51978093 0.68820685 -0.5061611 
0.013977561 0.1645915 0.06430571 -0.07330927 -0.2153306 -0.97378564 
-0.0045403168 -0.42288542 -0.09908707 -0.37726715 -0.064087495 -0.92388433 
-0.18581769 0.18095197 0.106056936 -0.20722477 0.4456905 0.8708719 
0.055731058 -0.29367536 0.1492558 0.0018635256 -0.22616667 -0.9740868 
0.32270288 0.093597054 0.16496637 0.6393224 0.2302842 0.73364574 
0.052570947 0.17173998 -0.13449155 0.022369748 0.59072274 0.80656445 
0.0013617985 -0.10555807 0.15530203 -0.08897358 0.08541176 0.9923651 
0.18310998 0.028781645 -0.21816304 -0.12428864 0.10455639 0.986722 
-0.019116148 -0.2953008 -0.026923623 -0.0496221 -0.2020983 -0.97810733 
0.23349865 0.16724117 0.1850083 0.33740857 0.4135724 0.84564376 
-0.07517201 -0.081047826 0.070020385 -0.67709076 0.35621962 -0.64393765 
-0.13435932 0.04584679 -0.11581564 0.044161018 0.30106378 0.9525809 
-0.042285077 -0.007366203 0.11296158 0.5225645 0.8051255 -0.28053394 
0.1206538 0.1654981 0.033913366 0.5660184 0.7403518 -0.36263257 
0.105186604 -0.33097905 -0.12809712 0.32761765 -0.53051746 -0.78180426 
0.257515 0.29557914 0.07874207 0.4926248 0.6132592 0.6174415 
0.36746955 -0.013974734 0.1500248 0.78392065 0.14487435 0.6037217 
0.13829687 -0.38401818 0.24248847 0.40271375 -0.07891627 0.9119177 
0.26786852 0.31559867 0.04695381 0.94811493 0.21554975 0.23370147 
-0.13053674 -0.50294656 0.104287095 -0.7669184 -0.078136906 -0.63697 
0.28605002 0.28881383 -0.123496026 -0.53317535 -0.6579804 0.53177613 
0.005573459 -0.5077404 0.26999527 0.14331901 -0.34784558 0.92653286 
-0.074149504 0.29541928 -0.18831113 -0.09242837 0.9413245 -0.3246002 
0.17018506 -0.15531287 0.19233064 -0.77539283 0.6279925 -0.06626699 
-0.28571886 0.13961256 0.0070405453 0.13903178 0.41766763 0.89789975 
-0.32178694 0.17785199 0.0043412987 0.43151847 0.3074065 0.84811145 
0.06502138 -0.45876932 -0.050608993 0.3420699 -0.5448624 -0.7655803 
0.2403539 0.28501147 -0.14873374 -0.45669425 -0.3862762 0.80138695 
0.048263274 -0.13899682 -0.05782465 0.055576105 0.4962237 0.86641407 
0.20223911 -0.3680598 0.12336162 0.73721254 -0.6604367 0.14262207 
-0.06403422 -0.1164083 0.02621603 -0.9997537 0.0095115 -0.020052278 
0.107805185 -0.23629871 0.16659866 -0.7036601 0.38669172 0.5960973 
-0.09582125 -0.50088197 0.13024256 0.28979737 0.92467326 -0.24697535 
0.44323707 0.05969964 0.0033560172 0.9776473 0.1769239 0.113594614 
0.001648318 -0.3296 0.1497248 0.4399478 0.59731275 -0.6705694 
0.22455251 0.12404165 0.2106867 0.42098665 0.34167886 0.8402534 
0.1393787 0.009404644 -0.044432856 -0.6297735 -0.6835202 0.3690332 
0.27603588 -0.25998947 0.17476638 0.78558624 -0.5873584 0.19458781 
0.02007293 -0.19848704 0.06717244 -0.99922675 -0.007691983 -0.038557693 
0.03342216 -0.4372881 0.2720089 0.25174084 -0.15906806 0.9546329 
-0.028091088 -0.31776196 0.103225805 0.6633524 0.7387639 -0.11912823 
-0.269664 0.13259411 -0.03907499 -0.62623936 -0.7491841 0.2157487 
-0.09327211 -0.47196656 0.21784353 0.1925531 0.9464688 -0.25907558 
-0.090419866 0.29519206 -0.15472347 -0.65521336 0.74473745 -0.12673438 
0.0044226795 0.19716303 0.05907501 -0.19041498 -0.21309128 -0.95829755 
0.20012395 -0.35509217 0.19978347 0.7711507 -0.5976605 0.2193822 
-0.18266565 0.10098973 0.11033326 0.29082 -0.043984037 0.95576626 
-0.01259562 -0.115340784 0.15310977 -0.20037223 -0.37740868 0.9041093 
0.105573036 0.09577161 -0.16711554 0.23078696 -0.12254738 -0.9652562 
-0.1897519 0.09661713 -0.022627633 0.76248986 -0.622422 0.1766354 
0.22149205 -0.07401751 -0.18433994 -0.56589895 0.1798083 0.8046287 
0.31133157 0.13231243 0.15637039 0.6212812 0.3665884 0.6925479 
0.25630498 0.114571884 0.19957614 0.39521694 0.32978037 0.8573497 
0.15349376 -0.34048432 -0.101301074 0.4445887 -0.55410194 -0.703784 
