-16.340868 36.77554 28.955957 -0.69451123 -0.43379247 0.57400197 
33.66217 -25.495598 16.219982 0.9887615 -0.105454415 -0.105971955 
-61.407913 59.88302 -48.158417 -0.58647114 -0.7969254 -0.14478076 
-24.169065 70.20769 -7.076171 -0.65053403 0.6743154 -0.3494341 
59.701576 57.932556 -5.41066 0.7510827 -0.47346175 0.46011814 
10.442865 86.212616 19.755207 0.38863546 0.918002 0.07896087 
13.3800125 40.582558 30.850574 0.24872565 -0.5103326 0.82322305 
19.292048 79.3533 18.648035 0.8046448 0.5894344 0.07151082 
28.284239 66.99077 12.109749 0.8074463 0.5226595 0.2736011 
-11.7149725 46.931366 -13.90674 -0.2961073 -0.14005725 -0.94483036 
-42.43797 -40.740803 8.629022 -0.52903956 0.8284628 -0.18375674 
13.167449 31.020592 -0.40757442 0.80254376 -0.56292385 -0.19758609 
-24.623055 64.566315 27.703531 -0.8397829 0.43114087 0.32997316 
-22.052044 22.220013 19.40021 -0.7971846 0.56817514 0.20414148 
-61.67781 63.13736 -14.864835 -0.6893592 0.15103453 0.70850015 
-34.34944 -7.5033474 17.247112 -0.5062275 -0.17942257 0.84352905 
28.76934 9.589001 16.942745 0.72021645 0.36910158 0.58741146 
63.731228 72.88156 -27.24791 0.98941004 0.015516077 0.1443157 
-10.177689 88.349075 -0.90899956 -0.6301731 0.77068436 0.09448558 
10.703198 78.73756 -25.145716 0.4022295 -0.07181576 -0.9127179 
62.677338 67.73801 -19.704344 0.99632245 -0.07214193 0.046229206 
-30.416908 14.196915 5.0450454 -0.527208 0.7053424 -0.47386056 
-29.97357 11.897005 22.0221 -0.5706804 0.45698363 0.6822682 
-19.947546 -9.966612 12.528268 0.75302917 -0.6510302 0.095429294 
16.304657 -32.183983 9.319366 -0.62931895 -0.48043358 -0.6108529 
-22.740799 -44.48703 17.058537 0.9721342 -0.12019854 -0.20126453 
2.6838372 56.219154 -45.31214 0.1794539 -0.5748213 -0.7983588 
-21.265326 23.293613 13.544813 -0.7367315 0.6759801 -0.016658997 
-14.658071 94.24097 -29.948233 0.44978097 0.44169965 -0.7762722 
-15.7873125 80.42941 -3.1093178 -0.6967313 0.614203 -0.3705674 
35.12106 48.074875 -6.3764915 -0.33764225 -0.76336306 -0.5507037 
-7.201042 30.455456 31.374353 -0.28672966 -0.11645684 0.9509069 
29.60701 -42.77584 21.988544 0.90214896 0.115199916 0.41575986 
29.521915 -30.979855 8.827612 0.72522694 -0.29327586 -0.6229247 
31.256565 -4.635357 -0.9516915 0.5400306 0.030915687 -0.8410774 
-36.34684 -52.347183 0.8092662 0.8399236 -0.46230906 -0.28425094 
-41.066402 -3.541626 1.7398475 -0.79966426 0.40315846 -0.44497225 
24.521711 -50.30661 -1.1955556 -0.5133784 0.24708971 -0.82182074 
-18.338293 81.888885 11.59464 -0.735405 0.66234505 -0.14310305 
-36.61803 60.794983 -18.301857 0.87017864 0.069567114 -0.48780072 
-33.457752 5.486414 22.244465 -0.65054995 0.07370158 0.75587887 
3.7190685 4.1621647 33.89615 0.8194965 0.409925 0.4004834 
23.033491 -7.5001926 -2.1367173 -0.36800334 -0.013804183 -0.929722 
-36.176533 55.118073 -17.111538 0.723256 -0.2171612 -0.65554696 
31.198042 49.806698 13.476231 0.4161243 -0.63847566 0.6474484 
29.671335 -41.98395 10.723497 0.5713707 0.6242496 -0.53277385 
-61.273598 61.759056 -51.548325 -0.738521 -0.40482947 -0.5391659 
58.517143 68.705215 -7.7068872 0.480043 0.7151888 0.5079998 
-25.826292 41.962776 9.118582 -0.7518943 -0.6411167 -0.15370212 
21.973904 72.10183 0.69047683 0.56610096 0.72424066 -0.39370695 
12.251355 84.29523 11.950384 0.5812976 0.8032105 -0.13017678 
33.207916 -7.17157 14.050165 0.9052788 -0.06697084 0.41950586 
17.26749 -33.69778 9.584559 -0.5566708 -0.5068981 -0.658158 
-3.0159752 54.720524 -21.089178 -0.26998186 -0.9531085 -0.1367262 
-29.224699 17.162367 8.436729 -0.60307616 0.73620284 -0.3070904 
-22.060091 3.1679478 -2.637208 0.3097132 -0.03178627 -0.95029855 
-3.8479912 89.189 -8.871808 0.025865428 0.7927308 -0.6090228 
-4.4621196 14.800554 30.372375 -0.34982038 -0.025337758 0.9364741 
1.9400349 87.05422 23.810484 0.04606336 0.89675844 0.44011638 
51.266693 81.665306 -36.431953 -0.6458904 0.11235497 -0.7551172 
-48.208256 56.10393 -29.754148 0.6058288 -0.4562852 -0.6517478 
17.856276 86.70996 -19.390701 0.69133514 -0.15288746 0.7061736 
-49.67389 76.503006 -43.729935 0.98267883 0.1679999 -0.07822005 
24.889246 -45.504158 28.355507 0.64896315 -0.092581905 0.7551658 
20.493011 -21.569496 25.431765 -0.3147877 0.6458045 0.69558984 
2.8819513 53.686604 -14.754935 0.31484988 -0.73107475 -0.60530925 
-60.133472 57.806515 -32.079834 -0.7024881 -0.61796176 -0.353035 
3.5250688 72.61571 36.920425 0.10485342 0.28126624 0.9538842 
-13.380999 69.99967 -16.973238 -0.95430124 0.09111444 -0.28461793 
39.840576 65.92586 -11.369421 -0.79881704 0.59864324 -0.059308987 
33.888954 -6.810789 1.7262721 0.8541919 -0.051356323 -0.5174154 
-1.8844254 1.5266991 48.482758 -0.13480903 0.89299655 0.42939925 
30.502357 -19.35545 3.208318 0.55518246 -0.5867939 -0.58944494 
-41.253147 51.98874 -19.507772 0.42842138 -0.6603236 -0.61678827 
58.89486 56.80536 -5.7042084 0.6032295 -0.6389195 0.47738463 
-51.606174 73.61547 -30.353853 0.45252937 0.8916557 0.012934173 
7.924985 3.8310661 23.885529 -0.08885035 -0.87950367 0.46752423 
6.560176 51.311005 -13.037648 0.026131347 -0.03216438 -0.9991409 
-13.477048 17.40203 -2.1651928 -0.4342588 0.15472351 -0.8874007 
-13.173122 76.29262 -16.775082 -0.9794627 -0.004403719 0.20157741 
1.3333877 87.28544 -9.993294 0.30240828 0.84379274 -0.44335428 
23.072186 69.207245 22.965908 0.8880254 0.2602211 0.37907243 
-25.694471 -10.36582 17.92263 0.25509346 -0.4073553 0.87692016 
21.77519 -36.915512 30.669533 -0.020928906 -0.019355228 0.9995936 
7.5199137 86.76561 -22.072908 -0.64592105 0.7366351 -0.20038648 
7.495725 62.61721 -37.017586 0.8798793 0.42011344 -0.22207448 
-24.937174 72.55826 21.21357 -0.84140694 0.23050404 0.4887763 
52.296944 70.182175 -7.5332446 0.05174804 0.812879 0.58012915 
-39.957832 47.45112 -0.29163486 -0.42283612 -0.85153997 0.3099828 
24.466158 -42.72299 8.141616 -0.21493739 0.73712474 -0.640663 
56.76259 57.71336 -2.739053 0.4975379 -0.48824158 0.71699107 
-29.887579 61.96014 16.897797 -0.8535656 0.18887496 0.48554307 
-33.34211 65.94601 7.989377 -0.63948417 0.6676167 0.38124514 
-48.05256 53.07715 -27.555437 0.57137847 -0.5144721 -0.6394099 
-7.3370075 90.340126 -5.195677 -0.369815 0.8813679 -0.29398543 
-45.081184 71.65596 -23.201729 0.5108804 0.8557898 -0.08139461 
10.551838 59.92567 38.310425 0.35721043 0.03367172 0.9334168 
-14.687278 43.614357 33.75347 -0.62451005 -0.21128881 0.75189376 
-35.84394 10.426691 6.18648 -0.6625924 0.6825816 -0.30830786 
52.610626 78.46927 -17.30168 -0.14226216 0.88841516 0.43644014 
-41.00133 48.574615 -15.634697 0.011943228 -0.8157842 -0.578233 
12.0624 66.8468 -21.692135 0.8705729 -0.44170406 -0.21679546 
48.303356 78.14877 -22.107492 -0.87266046 0.48714322 0.033988632 
22.098886 55.863716 -8.976713 0.38151166 -0.009923241 -0.92431074 
-24.649632 69.91514 -6.7437215 -0.65526855 0.6779443 -0.33318865 
21.46239 73.47448 2.6642535 0.5110709 0.783185 -0.35415787 
24.895344 67.25666 18.3471 0.9380958 0.14419033 0.3149372 
15.512522 21.30497 3.6922886 0.4672912 0.4046066 -0.7860868 
10.063354 73.04909 -27.130983 0.6330966 0.31155854 -0.7086043 
18.231213 39.811176 -6.0732174 0.77064914 -0.5266982 -0.3587324 
-12.60811 33.971786 -7.496352 -0.49130955 -0.5792861 -0.6504172 
56.112934 68.18685 -32.25052 -0.51482844 -0.74990624 -0.41544235 
-41.1076 46.309357 -11.113394 -0.25160828 -0.93087864 -0.2648739 
7.582725 41.980736 32.884827 0.16220933 -0.47837898 0.8630421 
19.725157 18.690712 22.0756 0.624035 0.31779137 0.71385497 
43.955112 70.42889 -11.649796 -0.619249 0.7540651 0.21889845 
17.911915 48.174156 -11.0962515 0.6203425 -0.13327955 -0.7729241 
-7.6249456 88.51023 -8.110674 -0.4926184 0.6351352 -0.5949205 
23.01951 -49.036934 29.004433 0.5471473 -0.30092728 0.7810714 
-62.18551 62.713257 -31.818403 -0.9783889 -0.15319614 -0.13887425 
4.474556 46.95877 35.886932 0.022559416 -0.4533324 0.891056 
50.071136 85.110466 -35.20588 -0.46740657 0.34396 -0.8143848 
28.045769 -27.091442 5.959427 0.5774915 -0.2512015 -0.7767891 
-16.469227 22.110123 27.571978 -0.5785797 0.038441285 0.81471944 
19.610498 21.927996 6.878932 0.5470892 0.5377568 -0.64149123 
48.063286 51.601753 -4.0832057 0.6034422 -0.73116314 0.31821057 
8.700297 36.427605 30.502907 0.28744477 -0.14696099 0.9464555 
54.6962 80.85854 -38.489998 -0.32528237 0.41912183 -0.8476605 
-11.54294 84.0419 -15.592806 -0.51096475 0.37648618 0.7727698 
27.39259 -25.188175 27.293161 0.4287353 0.37949333 0.8198603 
16.033796 1.876627 24.64832 -0.16420543 -0.3251221 0.9313067 
24.307621 -1.2852726 -2.369075 -0.041005958 0.043654326 -0.99820477 
18.858465 37.52098 2.930207 0.79075575 -0.58405936 -0.1832484 
26.670261 70.29925 10.574876 0.8638169 0.49647623 0.085625544 
13.367539 -9.428064 16.333918 -0.71046764 -0.21855548 0.6689314 
30.921045 -1.6397686 18.303238 0.74886006 0.038368415 0.6616165 
20.736008 38.019867 13.381726 0.92361087 -0.37940183 0.054746285 
-25.483593 46.55049 -6.855019 -0.44278696 -0.4045943 -0.80015194 
-1.8078784 50.646805 -14.867164 0.2755964 -0.40001848 -0.8740891 
3.727019 55.811527 -26.7291 0.5697329 -0.81476146 0.10755581 
25.119507 64.72409 19.240883 0.91973335 0.23657452 0.31324604 
-8.680508 53.56628 39.594437 -0.10330814 -0.22081393 0.9698292 
58.278267 60.834217 -24.168034 0.6539865 -0.5281339 -0.5416421 
16.49682 29.611893 7.536425 0.8294028 -0.08947765 -0.5514388 
-32.095963 -39.920784 5.3493886 0.307031 -0.025453418 -0.9513591 
0.7121766 88.47164 20.912333 0.040060055 0.90411377 0.4254098 
-1.0238564 75.85599 -30.507034 0.17114724 0.59410655 -0.7859682 
-19.890875 17.349266 1.1439054 -0.40846896 0.47569898 -0.77901447 
-29.326805 -0.7840328 -3.1645033 -0.052412327 -0.064551465 -0.996537 
-61.480022 59.6482 -44.335075 -0.5310996 -0.8439141 0.075777225 
26.675852 68.355804 13.55193 0.85387594 0.35117647 0.3841497 
53.16045 78.16052 -38.644745 -0.6150748 0.16525595 -0.7709562 
7.7227964 0.9657917 17.937946 -0.674776 -0.66534346 0.31936723 
-34.37797 6.1984463 21.346247 -0.7154305 0.1344671 0.6856222 
15.549576 9.476299 25.786175 0.23020767 0.056757264 0.97148496 
20.359888 77.14542 20.365131 0.818939 0.50510645 0.27240863 
19.378325 -8.800434 20.68454 -0.36921337 -0.41882703 0.8296176 
4.997495 71.85727 36.91201 0.17127107 0.27755216 0.9453206 
-50.444214 -48.622772 9.7528925 -0.8572731 -0.00022373084 0.5148619 
-16.418402 31.387081 -1.137706 -0.6452857 -0.50672674 -0.5716943 
14.093189 -12.125523 7.8035398 -0.83948654 -0.15983577 -0.51934075 
-33.115242 -19.110748 -0.1004194 0.11711282 -0.09132461 -0.98891073 
-62.20821 60.835953 -30.04427 -0.94736826 -0.22439753 -0.22834004 
-24.717459 -13.796539 4.9477553 0.73709023 -0.1463385 -0.6597599 
28.463974 -47.077522 23.534763 0.78653806 -0.19172564 0.5870257 
-2.4543645 67.18474 -39.088226 -0.13640302 0.82958806 -0.541459 
30.343452 -54.94256 12.071171 -0.0765809 -0.9781696 0.1931828 
-10.78801 53.576843 -15.249646 -0.38819906 -0.20754635 -0.8979009 
3.0716128 3.1823978 36.733414 0.84181696 0.4432257 0.3080507 
-6.772078 54.930164 39.917603 -0.04568805 -0.09985615 0.9939524 
27.770138 43.9075 1.6888006 0.20631959 -0.93905497 -0.27496913 
-2.4432411 52.994354 -17.00819 0.1456058 -0.8125947 -0.56434816 
-28.710197 -15.1117325 18.365173 0.30000636 0.20714456 0.93117523 
0.24516708 4.7815056 38.332138 0.3830561 0.88498926 0.2646924 
-21.434649 55.28681 31.609804 -0.6758287 -0.4678101 0.5695694 
61.272446 63.31474 -21.433441 0.8795992 -0.41479406 -0.23291864 
-53.684376 50.234024 -20.671799 -0.3329265 -0.8850678 0.32529196 
-11.678693 85.58808 -4.6312795 -0.8456129 0.43163168 -0.31405878 
2.0191915 62.41053 39.901764 0.021715507 0.10313165 0.99443066 
11.25802 60.644024 37.94165 0.42056832 0.12717175 0.89830375 
-11.9297285 83.04137 23.820196 -0.44359735 0.73781 0.50878066 
33.468136 7.857503 9.387311 0.89327645 0.44920504 -0.016492503 
-39.724167 -6.33794 -1.0877057 -0.5358847 0.2557507 -0.80462366 
-49.786854 75.387405 -41.189346 0.99000335 0.006086015 0.14091231 
-7.5523677 44.140106 -14.312489 -0.00067542226 -0.21526442 -0.9765556 
-3.9831169 64.25424 38.796707 -0.18107575 0.2789314 0.9430848 
-22.121729 57.422638 32.39525 -0.6593125 -0.37881586 0.6494656 
-28.24933 49.721165 19.254978 -0.78857523 -0.28951958 0.54251957 
-29.78074 -7.43244 -1.8672009 0.33960366 -0.31846032 -0.8850155 
14.941536 46.094254 -12.802355 0.4612848 -0.15335172 -0.8738991 
-13.710146 -3.3698692 16.972656 0.5915639 -0.71115243 0.37988737 
-55.42743 58.34631 -36.8798 0.2270523 -0.8473394 -0.48006585 
-36.558132 -4.572214 16.735342 -0.6100615 -0.30040267 0.7332006 
-8.513311 2.1110458 18.492357 0.64540404 -0.7185817 0.25902507 
4.158691 6.6962976 1.6521212 -0.16076794 -0.57375646 -0.80309224 
-16.009949 66.18498 -14.390851 -0.46889713 0.09536027 -0.8780899 
12.732831 6.5083685 25.702682 0.055108037 -0.34509906 0.93694705 
-31.437727 -29.166084 22.794657 0.14421801 -0.028700074 0.98912966 
-24.072214 63.38678 -11.082014 -0.5129904 0.030228643 -0.85786194 
-27.995491 60.267918 21.314602 -0.8889247 0.16035458 0.42906785 
6.0768814 49.39843 36.9022 0.051297322 -0.4053603 0.9127166 
28.754177 49.312813 -5.585524 0.07603391 -0.65881854 -0.7484497 
9.106692 14.116622 28.437082 0.5467323 -0.04175276 0.8362658 
17.611965 71.99336 28.929056 0.64426476 0.3774347 0.66518116 
10.631678 63.371613 -18.190924 0.76391274 -0.58756334 -0.26684576 
-30.997 -53.132988 19.291222 -0.064474285 -0.9945418 0.082034096 
-20.819567 -25.811626 8.992812 0.96982753 -0.07922383 -0.23056059 
27.899809 -46.38021 24.546211 0.8261117 -0.111956134 0.5522729 
-44.086163 -53.265472 12.460404 -0.3270072 -0.7642989 0.5557998 
17.028854 -24.184528 25.269058 -0.67867756 0.42661637 0.5978254 
-11.352494 24.11845 -3.0140417 -0.6046547 -0.08692493 -0.7917302 
-46.64703 -46.919983 -3.3317292 -0.23959106 0.78640944 -0.56934726 
-11.566066 87.78376 13.969435 -0.51750183 0.8461705 0.12722938 
12.279302 32.3437 28.260412 0.54297143 -0.09039909 0.8348713 
-62.639202 69.66899 -43.035652 -0.9599643 0.27226752 0.06587099 
-38.422623 5.615821 4.215437 -0.7797828 0.40564293 -0.47685707 
38.61894 61.275646 6.053687 0.5071196 0.7980825 0.32541373 
-1.2087696 73.58551 -32.192375 0.14339705 0.5953024 -0.7906025 
11.946118 -30.825413 19.23674 -0.98979825 -0.03586353 0.13788848 
-25.181889 -50.50566 23.783129 0.62297 -0.6989071 0.35133645 
-17.811285 28.251024 2.599143 -0.79638684 -0.16831446 -0.5808943 
17.847206 -31.896015 28.92584 -0.5592221 0.18843243 0.8073189 
-40.742294 -40.21038 14.748013 -0.9189042 0.27770907 0.28016555 
-38.677925 53.900482 9.17668 -0.7168878 0.008152513 0.69714093 
-16.228037 84.06554 11.614542 -0.6667239 0.73402107 -0.12919843 
-5.354916 56.715153 40.015694 -0.06221188 0.020475954 0.9978529 
62.34945 63.67218 -11.6605 0.999315 0.024554256 -0.027687712 
6.462318 58.538868 -20.784977 0.72955596 -0.6838821 -0.007304085 
1.5370965 91.049034 10.000824 0.25963536 0.9643028 -0.05205369 
-19.12793 78.548996 24.310402 -0.50133324 0.5919933 0.631038 
13.475704 82.90551 1.1038691 0.81946576 0.56554615 -0.092916116 
16.013699 71.490204 30.555508 0.597486 0.36500862 0.7139882 
23.617325 64.84854 -4.974148 0.601938 0.4539935 -0.65693265 
0.22130957 7.665082 33.674896 0.072058655 0.56544584 0.82163167 
19.551321 0.77057457 -1.7657764 -0.30745926 -0.1506657 -0.9395577 
14.424252 83.33521 -16.966066 0.53392047 0.21123733 0.8187232 
-61.39102 72.59848 -35.3695 -0.97201955 0.19692175 0.12806161 
27.348053 15.062294 14.300355 0.81532246 0.49760467 0.2960386 
-6.779553 57.59022 -30.035429 -0.79276025 -0.6095164 -0.0045798523 
-19.169014 23.342155 4.415003 -0.7681263 0.40162113 -0.49868068 
27.846539 -2.7281055 21.28712 0.6371559 0.05806036 0.768545 
-33.3065 -38.86737 24.027328 -0.3851145 0.27320796 0.88150114 
-50.83649 77.314804 -46.57196 0.802685 0.30991194 -0.50956 
-12.837183 1.8407345 4.575874 0.611385 -0.5501417 -0.5688168 
-43.074223 -47.627686 -4.4101954 0.20539244 0.73969144 -0.6408358 
6.7046723 56.213528 -40.787743 0.85732573 -0.46920124 -0.21176106 
-7.048911 4.451165 6.447058 0.35567683 -0.88300645 -0.30625734 
-41.92278 -51.585327 -5.321585 0.38966027 -0.035090294 -0.92028993 
16.457588 29.411259 7.518464 0.8294028 -0.08947765 -0.5514388 
-12.414019 40.40863 -11.840401 -0.3421539 -0.36154217 -0.867305 
-20.861279 79.23544 12.234386 -0.7225365 0.6728591 -0.15875052 
-0.075538024 48.8878 36.935593 0.1423021 -0.41086006 0.9005244 
31.48009 -42.53669 12.98962 0.68199307 0.69458276 -0.22899823 
-23.021822 -3.482113 -1.6053059 0.38922843 -0.39428723 -0.83248955 
-27.253355 67.739914 19.4429 -0.84784853 0.20558237 0.48876253 
45.777596 66.27116 -1.499 -0.06961017 0.83476603 0.54618686 
21.616962 45.225746 25.259724 0.9322595 -0.20580158 0.2975532 
-10.056759 45.718056 -14.226342 -0.213012 -0.16037731 -0.9637972 
1.2419434 4.7236643 7.825915 -0.24634232 -0.9691088 -0.01198261 
26.063152 -34.560028 8.050199 0.3339952 -0.45662132 -0.8245873 
38.544476 63.29665 0.5118485 -0.21291742 0.9438099 0.25276282 
-13.25092 67.130554 -17.483603 -0.90050083 -0.066283144 -0.429773 
32.71442 -25.735245 12.144085 0.92288595 -0.16911398 -0.3459508 
6.453183 16.216677 -1.7157354 0.39854285 -0.06125089 -0.9151021 
18.421415 37.57203 0.8173079 0.77264595 -0.6134126 -0.16353326 
14.796391 28.887861 5.2655373 0.7944511 -0.1901245 -0.5768016 
-49.90177 61.53989 -35.21074 0.69632167 -0.32927355 -0.63774216 
-4.651408 55.2987 39.985573 0.0319209 -0.11522929 0.9928259 
-38.820843 -44.543015 1.5689421 0.19572233 0.70237935 -0.6843654 
-11.02259 92.88829 -22.624691 0.66294414 0.6944206 0.27979484 
-48.183445 72.42526 -18.383593 0.2517664 0.9230576 0.29082346 
9.148427 84.29014 -7.338081 0.5659437 0.7641049 -0.30959877 
23.171692 54.438107 -8.511325 0.30588284 -0.11005614 -0.9456867 
-2.8231552 89.299736 19.026432 -0.12408965 0.92071086 0.36999086 
-13.048675 -3.9272537 13.189065 0.7357296 -0.67727476 -0.00097348343 
10.305841 79.92587 30.502043 0.5205378 0.59535223 0.6120426 
26.666273 -55.004776 2.3674085 -0.23703276 -0.9550093 -0.17824912 
31.94793 63.36854 0.2213792 0.24475427 0.9279607 -0.28104144 
-18.697405 -5.225445 19.113415 0.35688463 -0.69608307 0.6229781 
-1.1978573 5.275614 15.054219 0.06602212 -0.99709123 -0.038081035 
-7.964681 45.46207 -14.53827 -0.114908494 -0.17147101 -0.97846496 
-37.56845 -43.339832 3.004626 0.118111774 0.5490166 -0.82742393 
-38.23257 59.75904 8.190461 -0.68674344 0.29144263 0.66591644 
40.40823 66.58831 -9.810639 -0.76095366 0.6432616 0.08464044 
27.627943 46.51871 11.989483 0.5555768 -0.73306715 0.3923608 
23.250465 42.10721 11.151705 0.7755816 -0.6188512 0.124484465 
21.721264 -3.0074024 -1.9074514 -0.29447743 -0.056396622 -0.9539929 
37.839012 54.48615 -14.797313 -0.72590303 -0.36936024 -0.58020496 
23.699614 -51.177795 26.864748 0.540216 -0.622006 0.5668114 
32.395336 9.364546 11.119808 0.8108759 0.51307034 0.2814944 
-42.30464 49.385235 0.11456993 -0.6085295 -0.65613663 0.446292 
-45.93128 69.19884 -13.492295 0.16789162 0.89412254 0.41515937 
35.55426 -5.313349 6.3610253 0.9949815 -0.09510869 -0.031081341 
-1.9941794 49.06363 37.3239 0.16312268 -0.3831881 0.90915227 
16.084267 82.40387 14.978198 0.6131712 0.7572857 -0.22480963 
-36.948925 9.383229 15.129339 -0.7554374 0.55270094 0.35190338 
-43.622482 -50.46318 14.770475 -0.47574458 -0.3213731 0.8187713 
-5.889626 3.595169 14.4326935 0.5357037 -0.8443375 0.010754911 
-51.152138 55.402035 -31.551191 0.48973733 -0.5663297 -0.66289365 
23.864393 50.341774 22.27985 0.8909218 -0.23531564 0.3884391 
-17.380396 -1.1751118 22.271255 0.36081946 -0.5688092 0.7390977 
61.25996 63.201454 -21.25167 0.8795992 -0.41479406 -0.23291864 
-11.002901 78.98027 -27.65898 -0.40542752 0.026871858 -0.9137321 
1.9892054 16.723085 -3.8189192 0.38050503 -0.24447438 -0.891879 
34.47591 -3.7353477 12.135643 0.9365835 -0.09988947 0.3359069 
-12.224104 81.76073 -7.5361385 -0.7466876 0.5304349 -0.40136823 
-12.838774 3.0562916 3.4407403 0.5421234 -0.56459564 -0.62236166 
43.36332 46.985 -2.4585967 0.59598917 -0.79874384 -0.08249355 
-13.660013 78.03702 -18.303322 -0.9303707 -0.16472064 0.32753235 
23.633024 10.689099 0.5533481 0.246488 0.578096 -0.7778488 
-36.018536 51.44198 11.021788 -0.6224593 -0.29809064 0.72366184 
-38.479683 -50.802895 18.261992 -0.4701144 -0.6571997 0.5891358 
-26.780136 -2.2820606 22.423145 -0.19107883 -0.5222303 0.83112234 
-15.428897 32.73359 -3.5903635 -0.6141732 -0.5439768 -0.5717347 
25.605621 -46.07631 1.9921823 -0.21907724 0.86757994 -0.44644168 
-62.67879 64.24728 -29.273346 -0.9694096 0.13164486 -0.20715855 
59.835163 77.74095 -22.463236 0.6922289 0.57748646 0.43281472 
30.340574 -46.62623 21.057861 0.75358397 -0.13342771 0.6436678 
0.240001 4.565727 21.083202 -0.052203663 -0.9659147 -0.25354204 
-51.162292 64.9579 -9.056259 -0.47615457 0.5095767 0.7166648 
-21.084032 36.41543 21.294174 -0.82824135 -0.3159926 0.46277955 
5.98738 0.6146393 9.488231 -0.8351361 -0.54933643 -0.027878493 
22.279554 50.25244 -8.058423 0.5119845 -0.26316562 -0.81768924 
-56.574898 60.391403 -52.502083 0.25337604 -0.7186135 -0.6476073 
12.090482 67.294945 -22.526386 0.8706008 -0.4137614 -0.26618734 
-4.941641 3.5955372 29.215708 -0.9680817 -0.24714918 0.041653723 
9.549923 -3.4929104 14.702756 -0.8130626 -0.50265425 0.2937139 
-7.351062 6.060136 27.082518 -0.5109796 -0.6456411 0.56749225 
24.929092 42.768566 1.9099647 0.4803608 -0.8719429 -0.094705366 
28.073856 0.8882065 -1.5220759 0.2996323 0.21574871 -0.92934006 
4.4025493 55.943268 -28.948124 0.6670192 -0.7182528 0.1979857 
32.324284 -50.97397 17.084047 0.58002394 -0.5068051 0.63774663 
58.645237 58.72752 -3.4973695 0.59844565 -0.46410578 0.65304565 
-5.3950915 9.3282995 -0.9285474 -0.018004345 -0.62528473 -0.780189 
13.298447 -16.676292 11.0625 -0.987235 -0.018800631 -0.15815686 
13.998126 21.911886 26.109962 0.645198 -0.061677698 0.76152176 
16.503393 -50.844193 29.676746 -0.18391557 -0.50700694 0.84209204 
-8.247788 36.115562 32.86888 -0.21867266 -0.44889745 0.86641407 
14.744115 41.961777 31.185278 0.34572342 -0.4540157 0.8211852 
-4.620913 4.2214317 11.530106 0.37109104 -0.9260516 -0.06870136 
-22.891565 73.78554 2.573813 -0.76102644 0.6244566 -0.17576313 
-21.089567 36.679893 1.9844527 -0.85250205 -0.46792352 -0.23299748 
0.40191317 39.378006 -11.9240675 -0.009329368 -0.32209477 -0.9466615 
-22.74724 55.228672 29.91734 -0.7072694 -0.46976975 0.5282863 
-15.966311 82.817154 2.9050248 -0.6811002 0.7126698 -0.16794127 
46.56907 72.01622 -22.198048 -0.8342793 0.035109762 -0.550223 
-17.013716 84.51446 -19.7501 -0.7639237 -0.3300017 0.5545444 
-35.671093 -50.534332 0.58039176 0.85092694 -0.27570894 -0.44711065 
14.757156 -41.54313 28.856886 -0.5224586 0.2658866 0.81014895 
-25.397259 -6.247551 20.077454 -0.054451488 -0.5467297 0.8355368 
-61.824142 68.63277 -24.19941 -0.7364719 0.6764663 -0.0015917381 
-48.206394 -50.404472 11.952347 -0.63399464 -0.26616046 0.72609186 
13.90551 34.135216 27.492714 0.5567609 -0.30025217 0.77451015 
39.384937 63.940033 -0.84069383 -0.30300346 0.9254594 0.22740673 
-27.321953 71.90519 10.829805 -0.7094817 0.65853506 -0.2509328 
28.943798 45.6932 8.880287 0.3659685 -0.8452525 0.38937807 
-41.3433 61.665142 3.853481 -0.7141347 0.33913675 0.6123707 
-26.052416 41.269005 15.125422 -0.862085 -0.5041462 0.05143972 
-5.852968 3.56596 14.935289 0.5450756 -0.83788407 0.029031523 
22.579378 71.073654 22.65245 0.8701973 0.30079603 0.3902287 
27.696693 1.8111916 20.793589 0.61149114 0.13452406 0.7797319 
-22.420149 55.35192 30.453266 -0.7118414 -0.4631227 0.52801436 
-15.611715 95.598236 -29.302465 0.49726507 0.67005175 -0.5511425 
52.096336 81.03396 -21.795033 -0.11005141 0.77166754 0.62643266 
-16.823767 30.370338 0.09841186 -0.75888044 -0.36589032 -0.53872514 
62.98781 77.02298 -36.665344 0.8719559 0.22346279 -0.4356115 
-15.789386 79.21782 -5.3016076 -0.6565282 0.6721406 -0.34234154 
-23.801867 -37.737926 21.47629 0.69529015 0.13704035 0.70554346 
27.34131 44.688427 8.222355 0.4059088 -0.86133206 0.30552444 
-52.459686 65.55174 -48.768875 0.98587406 -0.16287419 0.039043263 
-38.237965 8.8137865 12.195998 -0.81922746 0.5692165 0.069706686 
16.441042 -28.57838 26.84808 -0.6393251 0.21535337 0.7381642 
20.45955 9.421971 24.374577 0.38354877 0.17950252 0.9059079 
-20.194296 88.532265 -22.361614 -0.8533271 -0.24696325 0.4591754 
-33.93357 65.007484 8.63361 -0.6024266 0.6277139 0.49300852 
30.646872 51.042683 14.792563 0.47033885 -0.4524769 0.75765824 
-25.547348 42.710808 2.0139465 -0.6242301 -0.779174 -0.056786515 
-1.7507207 53.624817 -41.99774 -0.36763066 -0.8351445 -0.40912262 
19.627161 35.72062 10.937911 0.9202752 -0.37964797 -0.09466262 
43.612835 51.34252 -18.378456 -0.41992447 -0.67530864 -0.6063182 
-6.871287 4.888981 5.394801 0.24760637 -0.88568693 -0.39274642 
-42.815304 57.321106 3.271204 -0.822191 0.060286 0.56601024 
29.852371 -1.6805935 19.424194 0.6957526 0.05501656 0.7161714 
-36.74088 66.977554 -0.27860093 -0.18164283 0.9657711 0.18518123 
-3.83626 7.5203037 30.987509 -0.69080055 0.29564363 0.65984046 
12.549215 52.537964 36.386726 0.41399503 -0.25271243 0.87449676 
48.790043 75.17049 -27.83234 -0.8752814 -0.34527424 -0.33862692 
18.213554 33.984013 21.71779 0.8933281 -0.19001542 0.40725806 
9.148544 62.841404 -27.793768 0.857501 -0.49580616 -0.137362 
2.798333 4.4479504 11.481486 -0.603778 -0.7925526 0.08551334 
-39.21889 -47.67263 19.452871 -0.74345547 -0.119519025 0.6580191 
25.087032 -46.592697 28.031 0.68696874 -0.10594868 0.718922 
-17.777424 41.763668 -10.26687 -0.34383392 -0.36220798 -0.8663623 
-37.15029 -26.382324 1.3111072 -0.3938062 -0.25421217 -0.88334185 
-47.424553 50.083427 -21.523912 0.31999728 -0.9357692 -0.1481138 
18.618837 74.8742 26.11297 0.7382678 0.3951913 0.5466118 
-42.878155 54.93177 -23.318094 0.63432616 -0.4523086 -0.6269348 
-25.78738 -12.543674 3.361372 0.64094186 -0.3710425 -0.67195314 
-12.837574 85.5365 -0.057076633 -0.73505855 0.6746554 -0.06729839 
16.357367 20.800121 3.9025798 0.42750144 0.41412595 -0.8035809 
-32.33578 58.41281 14.582749 -0.753866 0.22166342 0.6185073 
8.750726 65.86182 -31.24811 0.86100763 0.08370362 -0.50165683 
-3.1558173 4.4199543 20.991035 0.0826623 -0.99222416 -0.09304915 
-19.688969 26.70279 22.499453 -0.94136494 0.07383802 0.32921118 
3.8752236 56.049946 -18.291586 0.5601675 -0.8240314 -0.08476233 
-14.222466 91.349464 -30.680893 0.5278194 0.040694866 -0.84838116 
28.195993 -53.232857 17.133373 0.15264195 -0.8874472 0.43489993 
8.970194 18.223633 28.987244 0.4926061 -0.17196731 0.8530923 
-26.444635 -8.233105 -0.1698271 0.3882969 -0.4406709 -0.80934215 
38.97372 -51.742195 8.370873 0.9186857 -0.25755763 0.29946738 
3.5865688 4.0878887 15.693356 -0.59801817 -0.7984396 0.06977435 
-11.4876795 21.21636 29.7172 -0.21429412 -0.14370438 0.96614033 
32.205585 -12.81596 0.3244691 0.6488245 -0.19029659 -0.73675907 
9.45647 63.487633 -27.694305 0.8825547 -0.4156242 -0.21989483 
-30.341345 -14.0788765 18.469765 0.10362262 0.2072462 0.97278535 
-57.088318 55.534115 -14.646903 -0.5251104 -0.6536812 0.5449403 
-18.361366 -8.5067215 11.668978 0.63568723 -0.7706385 0.04492263 
-5.8878202 90.4965 12.788727 -0.3015617 0.94420254 0.1324467 
-49.73307 73.90222 -42.81546 0.98910046 -0.13871486 0.049380857 
7.0952716 77.27229 -26.853703 0.35740232 0.38987955 -0.84867984 
16.66335 7.346094 -1.2302401 -0.17385931 0.14867705 -0.97348243 
-7.824956 9.862182 -1.3473711 -0.011390676 -0.5955792 -0.8032158 
-30.053886 -1.3009033 -3.0865033 -0.07599269 -0.040939476 -0.99626756 
26.888735 61.37944 18.016317 0.7751113 0.25652438 0.577406 
-27.135565 17.645218 19.690847 -0.5737131 0.654739 0.4921078 
-34.070705 62.90742 10.580013 -0.69685173 0.4157802 0.58440095 
-0.35551733 32.195168 32.555534 0.02572732 -0.032777455 0.9991315 
-0.098616146 54.53552 -25.18513 -0.015493707 -0.99613553 0.08645203 
10.719746 90.66052 -21.519691 -0.7321988 0.4622675 0.50019366 
-10.971729 -1.3338795 15.197442 0.7436255 -0.64164245 0.18792552 
-8.946204 41.488632 -13.335994 -0.12612423 -0.3861068 -0.9137911 
-30.074493 54.78871 -10.240479 0.4100046 -0.16057062 -0.8978381 
-1.974045 42.651764 35.303932 0.30028537 -0.26204258 0.91714907 
-0.1864452 61.743763 39.97328 -0.06370161 0.13657352 0.9885797 
0.65081304 46.926407 36.021492 0.088841856 -0.32902133 0.94013405 
1.5465553 52.63508 -14.610593 0.45041615 -0.6177652 -0.64458627 
16.00095 34.835693 -0.83154476 0.8010617 -0.5795718 -0.14965536 
-32.118736 -20.733154 0.23404454 0.22177798 -0.08447174 -0.97143143 
-47.10224 -43.970863 10.580634 -0.5201059 0.716164 0.46540198 
-29.77874 -48.9281 8.950487 0.6614078 -0.46046257 -0.59204215 
-52.752396 64.572495 -48.15178 0.95261794 -0.264664 0.14990675 
-14.671747 12.662441 27.406137 -0.19160922 -0.203907 0.9600562 
20.087576 39.94158 -1.1704364 0.70763475 -0.67728186 -0.20135133 
-63.64259 63.966793 -18.58009 -0.95752156 0.06808309 0.2802091 
-46.669765 71.1871 -16.734081 0.32077083 0.8605274 0.39572555 
-35.01443 -44.742783 24.6038 -0.66060036 0.06270773 0.7481142 
56.186295 77.71515 -17.626099 0.4557736 0.7922129 0.40579444 
-16.830824 -0.27466202 22.696684 0.36483586 -0.5408248 0.75789404 
-36.917152 -53.99572 10.940683 0.25094694 -0.96628606 0.05759215 
-15.3670635 23.535557 0.24834089 -0.6504863 0.04892109 -0.7579408 
15.291906 96.8965 -26.066082 -0.38426134 0.8035319 -0.45462048 
-14.047118 47.99334 -13.195291 -0.35679427 -0.12676477 -0.9255423 
-56.55261 59.6217 -44.455826 0.6027813 -0.7957626 0.058452014 
24.00966 64.24463 -5.094822 0.55919033 0.5045212 -0.6578485 
-47.68903 55.407707 -28.876993 0.603243 -0.42487586 -0.67496544 
56.154415 55.88638 -21.070574 0.5534218 -0.665245 -0.501172 
19.96657 72.909805 25.659853 0.75116986 0.38113183 0.5389642 
-53.210026 63.3354 -50.823685 0.90742725 -0.4141602 -0.071042754 
24.355618 69.56262 18.931324 0.9356687 0.19004399 0.29733372 
-38.1141 -19.624546 20.893518 -0.30832618 0.49807912 0.81046414 
-49.832413 75.0484 -45.007683 0.9779316 0.008650217 -0.20874617 
58.99652 68.078354 -33.756836 0.057959333 -0.94150907 -0.33196592 
12.520527 -51.28425 26.613659 -0.7422889 -0.5440768 0.39113638 
-6.5118494 86.12398 -11.789345 -0.52981806 0.76171327 -0.37294203 
10.507992 -0.9946518 19.497456 -0.65384895 -0.54433894 0.5255251 
-22.504698 77.96321 13.868418 -0.70931613 0.6738465 -0.20688531 
16.976093 -31.465412 8.095305 -0.5882732 -0.42733017 -0.68653005 
10.081212 12.8189 27.767614 0.46970809 -0.07929464 0.8792535 
-19.555576 64.5797 33.98162 -0.5888686 0.35944298 0.7239023 
24.615526 4.4941235 22.803679 0.5620278 0.11540418 0.81902784 
18.16855 32.54132 9.659981 0.92723674 -0.19015141 -0.3226058 
-7.3920813 49.9215 -15.185632 -0.059383254 -0.25144473 -0.96604824 
55.346043 83.457985 -24.675194 0.29915 0.5618234 0.7712741 
-4.195741 22.82188 -6.378037 -0.14367446 -0.13124211 -0.98088384 
32.66573 5.84114 14.006498 0.8082167 0.29990292 0.50679785 
-47.20011 52.595234 -3.497839 -0.7743245 -0.3718481 0.51200646 
-11.352456 85.98105 19.668709 -0.4306648 0.79475605 0.42765716 
31.212109 8.798925 4.148695 0.6476785 0.52190655 -0.5550911 
22.536028 -51.31756 27.679716 0.54176253 -0.6496483 0.533339 
-53.496277 80.04878 -39.366867 0.37507 0.8605295 0.34469044 
-15.056403 94.49725 -30.063923 0.41619876 0.5574989 -0.718313 
9.167147 -3.7973595 13.016327 -0.82725006 -0.5263116 0.19660491 
-30.339977 68.118454 -1.0686685 -0.27592412 0.9565446 -0.09427786 
52.77892 85.79302 -35.61727 -0.07365608 0.53582925 -0.8411075 
-10.263937 62.771755 -24.106201 -0.8918637 -0.42618516 -0.15147722 
-58.19972 65.665436 -13.0821905 -0.46572143 0.51175964 0.7219457 
-23.12468 -0.16889954 -2.669315 0.32564387 -0.12295706 -0.9374634 
-53.52684 80.77816 -41.256424 0.38163114 0.8932004 0.23780406 
38.522137 -53.379807 8.204828 0.87198585 -0.47946447 0.09876477 
31.358059 -42.987946 18.239727 0.88502574 0.34614283 0.31131113 
25.598444 -40.493496 28.907068 0.6282794 -0.27842325 0.72646093 
21.134972 -53.480682 23.903475 0.3226125 -0.9406891 0.10500102 
-32.41475 -37.84212 23.975073 -0.20548645 0.29529604 0.9330464 
15.704345 -53.91729 23.50216 -0.2932642 -0.9560049 -0.0071237213 
-5.239179 1.6265163 34.486153 -0.9660949 0.13757932 -0.21847776 
-37.67808 -27.883049 2.1436536 -0.4117432 -0.37241927 -0.831728 
-8.920081 44.160553 -14.182734 -0.09442116 -0.18812683 -0.9775955 
25.519833 67.26892 -0.79004836 0.64393055 0.5509271 -0.53087926 
-0.6488519 90.73083 4.6414003 0.09010726 0.98768115 -0.1279321 
30.961575 61.911396 14.525399 0.44056475 0.47624183 0.7609838 
7.5903697 86.87788 21.813738 0.287385 0.91538185 0.28193256 
12.379587 51.357513 -13.146399 0.07179959 0.16131245 -0.9842881 
-28.213186 70.187935 7.428122 -0.61889154 0.77658594 -0.117845446 
-17.040766 2.889246 0.12437487 0.49633616 -0.34220332 -0.79783916 
43.300335 62.779778 -20.537348 -0.6612694 0.16371223 -0.7320663 
39.42644 56.601624 9.303822 0.79318166 0.1789651 0.58209485 
19.77804 -45.77234 8.879788 -0.7013985 0.48892692 -0.5186431 
-3.0137618 76.44113 35.400208 -0.20544916 0.42803037 0.88010263 
-26.296894 -28.09058 3.3131404 0.38436118 -0.30705607 -0.8706222 
28.978212 45.665913 8.792582 0.36601204 -0.84526616 0.38930744 
25.964905 -44.30024 5.615021 -0.13331988 0.8900647 -0.43590212 
9.817647 12.599241 -0.15542597 0.22745141 -0.10770684 -0.9678146 
-36.43733 67.08162 -0.52923036 -0.18164283 0.9657711 0.18518123 
-37.327213 48.228043 5.995789 -0.46259177 -0.82692057 0.3197049 
-15.152781 80.23935 -20.508657 -0.8089368 -0.45134416 0.37670913 
10.50075 85.670105 12.574053 0.59853584 0.7926631 -0.11593144 
8.073177 61.565685 -31.148993 0.9595854 -0.26186338 -0.1030697 
-11.895115 61.766705 -18.129257 -0.8540498 -0.25671726 -0.4524325 
25.760721 43.48353 7.0420856 0.5029098 -0.85102123 0.1511444 
14.578431 78.375046 -14.644002 0.93267536 0.29457846 0.20818307 
-19.893538 30.10352 21.711363 -0.93553543 -0.022009833 0.35254645 
-19.98326 72.72902 -9.40243 -0.59273154 0.57686406 -0.5620473 
-12.839416 53.30023 38.402855 -0.39815268 -0.27726302 0.8744139 
30.98986 10.088267 13.464391 0.78489983 0.4598228 0.4153254 
17.530718 54.1191 33.313446 0.62417924 -0.15035433 0.76667714 
7.3528647 81.09161 -25.93111 -0.027189562 0.21308927 -0.97665435 
18.59708 36.478672 4.8507533 0.83636886 -0.5050692 -0.21305461 
-41.959373 -46.788246 -3.0139534 0.25249508 0.77735597 -0.5761631 
-28.367485 52.967457 20.674072 -0.8079651 -0.18195383 0.56043303 
61.81655 78.68013 -26.730757 0.7706852 0.47401068 0.42586178 
16.951368 -29.470554 27.573717 -0.6697195 0.19438644 0.7167215 
-24.170357 38.14605 14.107459 -0.8527483 -0.5217252 -0.024965793 
-63.143044 65.055664 -26.692907 -0.9717566 0.1525574 -0.18004261 
-25.455614 19.61243 7.785773 -0.506986 0.79347575 -0.3366919 
-10.69056 61.706993 38.608162 -0.1174275 0.2626776 0.95771146 
-16.1474 27.747536 27.375158 -0.6577427 0.10030688 0.74653405 
33.138237 63.292408 1.034563 0.23664348 0.9337601 -0.26849946 
34.556858 -11.410925 3.4559324 0.9383325 -0.085234836 -0.3350629 
-31.981339 -10.206926 -1.7103949 0.3096576 -0.29992008 -0.9023082 
-39.830772 -8.060017 -1.4670484 -0.5742759 0.18737428 -0.79693043 
-14.960438 85.79854 -17.67303 -0.40988982 0.05675679 0.9103675 
-25.04941 3.5257626 -3.0873935 0.04031709 0.055876236 -0.9976234 
-14.665185 84.273575 -17.53243 -0.50745314 -0.044202957 0.8605448 
-31.457996 -14.832386 18.760042 0.10362262 0.2072462 0.97278535 
-32.08229 15.495864 12.195325 -0.73431176 0.67331856 -0.08618788 
26.5112 -22.691654 3.574391 0.22851312 -0.540378 -0.80979836 
38.266945 64.15788 -4.3781447 -0.44598842 0.89028364 0.09213798 
31.78172 -44.231216 18.334442 0.90326893 0.2470812 0.3507936 
33.584892 -55.598633 8.902766 0.034619916 -0.9866484 0.15914263 
-2.5264335 -4.920126 55.897278 0.03456839 0.26885334 0.9625606 
4.892098 54.906654 -34.316513 0.61376953 -0.76285094 0.20333573 
-38.960144 -15.264946 17.220602 -0.51255685 0.5356257 0.67111146 
6.4689384 82.11868 -25.63214 -0.07152241 0.26459104 -0.9617048 
33.86446 -20.790314 16.609484 0.9987209 0.010443339 0.04947281 
-34.420776 54.084866 -14.624699 0.756957 -0.22092323 -0.614987 
-32.39423 -13.899967 18.512377 -0.03620136 0.3045936 0.9517942 
13.778629 84.298904 21.103369 0.51377684 0.8346199 0.1986026 
-26.754515 -8.018969 18.993734 -0.008182049 -0.420488 0.9072612 
15.591428 75.366165 -15.612322 0.9753534 0.21388993 0.054192685 
-34.836185 61.672012 -14.560784 0.82400554 0.28271243 -0.49100775 
16.981102 -46.25386 30.525179 -0.19838308 0.10167576 0.97483647 
21.256628 40.9095 18.224758 0.9218026 -0.38128176 0.0700301 
23.544144 -26.537735 4.463155 -0.007430884 -0.22185366 -0.97505164 
-51.074284 77.42534 -46.811874 0.7716146 0.4057975 -0.48983592 
13.172013 -13.341976 10.230815 -0.9481219 -0.1454602 -0.28267673 
51.427284 53.816936 -22.011936 0.2912733 -0.6639544 -0.6887122 
-9.476641 85.79655 21.699902 -0.40656844 0.7815229 0.4732061 
-1.9306314 37.81792 33.78663 0.1815499 -0.3274741 0.9272542 
60.799194 76.5332 -22.379196 0.75693905 0.5214182 0.39391157 
27.146242 -55.05346 1.9193412 -0.30339554 -0.94669366 -0.10826917 
-25.583643 74.79834 14.208801 -0.73929596 0.6496693 -0.17711955 
-13.710429 40.095284 -11.170141 -0.34143522 -0.4105434 -0.84550345 
30.749987 -41.58758 12.966545 0.7544703 0.5868256 -0.29395616 
20.5303 37.524643 13.169205 0.9051107 -0.4244701 0.024488276 
-55.904224 58.87447 -11.14463 -0.5046528 -0.39289036 0.768741 
-8.600938 84.70104 -11.244172 -0.70003974 0.6497655 -0.29622474 
13.05026 -50.272743 28.20982 -0.6438324 -0.30614674 0.70125175 
15.365771 29.144611 5.960127 0.7846508 -0.18777913 -0.59081477 
43.94302 67.8125 -5.378043 -0.32646522 0.8537396 0.40564656 
33.666992 -52.959854 14.55147 0.48385525 -0.5530341 0.67826056 
18.986317 -7.2057 0.29514694 -0.6120857 -0.20128235 -0.764746 
50.411335 88.124115 -28.347818 -0.24445413 0.88306254 0.40055308 
16.196669 10.86554 -0.20730525 -0.069892235 0.3210518 -0.9444791 
-44.506657 -55.59948 5.7335734 -0.08455125 -0.98372626 0.1585363 
21.29691 53.15743 29.012539 0.8145681 -0.25732705 0.51986694 
-24.342035 73.60579 7.606985 -0.6994443 0.6718781 -0.24363388 
38.339504 51.027992 9.519573 0.67586917 -0.31469604 0.6664588 
20.301537 39.56527 22.714146 0.88659906 -0.4478776 0.115532435 
-4.6503654 4.1917515 12.070439 0.4193736 -0.9077381 -0.011721464 
29.286972 -37.642406 12.255112 0.88644654 -0.079711996 -0.455915 
-17.721207 -3.2363567 2.2818952 0.70741063 -0.37337092 -0.60013694 
1.1455605 42.26465 34.29535 0.23630515 -0.29613093 0.9254547 
1.2595338 72.947716 36.96148 -0.019068196 0.2574665 0.9660991 
-16.61595 48.005077 32.923645 -0.7614593 -0.19496934 0.61819637 
-35.466026 -24.881016 0.51786995 -0.056264903 -0.17859271 -0.98231304 
6.467519 58.213463 -30.651205 0.8294166 -0.5475081 0.11091878 
60.281925 68.42093 -33.873306 0.26770368 -0.8889694 -0.37157518 
-2.3749282 24.983402 -6.838004 0.08065535 -0.23395179 -0.9688969 
57.616245 79.30971 -21.925955 0.4915297 0.7227928 0.4857665 
37.358192 -47.46148 8.899995 0.7063139 0.6922678 0.14793922 
33.319027 63.42778 11.238845 0.5118921 0.6904759 0.5110866 
-35.242096 -50.83664 21.398344 -0.57549757 -0.7560324 0.3117973 
-55.3681 52.78604 -16.960169 -0.49575567 -0.7632411 0.41435412 
19.29214 42.5009 28.19754 0.7101011 -0.3709675 0.5984476 
18.116411 -10.261126 2.0953832 -0.71935564 -0.19806843 -0.66580504 
14.741342 25.051748 4.82504 0.62699574 0.21464106 -0.7488695 
20.881132 -52.923836 5.9031844 -0.7695811 -0.601525 -0.21427241 
-47.53264 -55.2601 3.7393136 -0.39113167 -0.9103024 0.13551976 
31.126503 -34.594715 15.806815 0.92465746 -0.36159518 -0.119404696 
14.756774 83.73816 16.391178 0.5784371 0.7991249 -0.1637374 
-11.442278 28.232235 29.853113 -0.31559023 0.05583773 0.94725126 
-35.55208 -12.149185 17.16473 -0.421204 0.31903788 0.8490006 
6.7418313 70.80049 -31.001387 0.52416056 0.44707674 -0.72482973 
24.65558 69.144104 18.226929 0.93408 0.15163223 0.323268 
-3.4203904 36.256104 33.38723 0.033891775 -0.33662513 0.94102865 
-3.919021 80.291084 -27.400003 0.12075399 0.62664336 -0.7698938 
10.995003 63.547028 -17.629093 0.72089386 -0.59481514 -0.35567823 
-17.545368 -6.265442 16.733328 0.4782327 -0.7566632 0.44581866 
38.02797 55.832153 11.176091 0.7238733 -0.007372236 0.6898935 
53.595276 69.23671 -6.2857714 0.08384375 0.8362275 0.5419352 
-51.41605 53.947884 -11.60358 -0.5495003 -0.6697254 0.49951708 
-21.11052 72.304276 26.764933 -0.8041052 0.31778303 0.5024229 
28.4813 11.695807 15.957751 0.7541427 0.42979628 0.49653196 
15.827579 84.03694 -18.098286 0.6452557 -0.038195692 0.7630113 
-6.3309603 90.298134 6.7243166 -0.31540623 0.9451666 -0.08472916 
6.495533 7.894993 0.51980126 -0.08287277 -0.37742713 -0.92232364 
-24.454771 20.889687 13.839878 -0.45648405 0.8884018 0.048626505 
8.701346 87.582565 -23.895485 -0.83648044 0.46779898 -0.28542012 
-41.09318 -50.577568 -5.0751486 0.3897721 -0.035217084 -0.9202377 
20.555271 40.079 0.34849 0.6956305 -0.6977681 -0.17093246 
-24.57001 65.204605 -10.494233 -0.58655566 0.16295402 -0.79334635 
12.6386385 66.77887 -19.745056 0.7872545 -0.548718 -0.28131643 
26.826548 -1.0457668 -2.213938 0.13956286 0.19366716 -0.9710897 
-32.00396 -34.10297 4.0759444 0.07724591 -0.3675748 -0.92678034 
-63.60175 60.710625 -19.732782 -0.95005554 -0.2779384 0.14193195 
23.530619 0.32715797 -2.2731638 0.01632604 0.06785735 -0.99756145 
-15.034892 81.12013 24.073545 -0.40043664 0.7416155 0.53819793 
22.741253 12.463253 22.085577 0.6186133 0.24526665 0.7464328 
13.812709 79.015625 -23.526638 0.5602203 -0.34821448 -0.75159824 
-56.564648 59.42439 -46.95437 0.5982677 -0.79842013 0.067831114 
-4.0702043 55.386154 -26.019108 -0.55421436 -0.83190846 0.027835596 
-15.884943 14.158096 27.349388 -0.22809108 -0.026460608 0.9732802 
-33.48054 58.282864 -13.701358 0.81031835 0.092353724 -0.5786665 
-5.827928 -8.579098 46.838547 -0.65439665 -0.7173057 -0.23924367 
12.590309 84.56162 -16.335733 0.43869698 0.54179496 0.71694016 
-49.25831 70.28311 -14.426351 0.028905157 0.8071217 0.5896771 
-17.662815 94.385574 -30.884703 -0.04086729 0.44226366 -0.89595354 
-0.043549664 53.467644 -31.404444 -0.11088541 -0.97897595 0.17120306 
23.644436 56.127068 -8.4351635 0.2933922 -0.025418038 -0.9556542 
61.080997 78.339966 -25.111097 0.73060644 0.5065925 0.4577972 
-37.63515 -32.89198 5.0263696 -0.5692434 -0.45966417 -0.6816677 
7.3948393 1.3467712 17.990788 -0.674776 -0.66534346 0.31936723 
10.513612 1.4453259 22.009935 -0.47390842 -0.61676335 0.62850124 
-12.029886 62.332935 -18.227118 -0.8540498 -0.25671726 -0.4524325 
-38.53596 6.5335007 5.328195 -0.77804834 0.4696253 -0.41724434 
49.829185 88.240326 -29.423376 -0.48277566 0.8476694 0.21996404 
-24.040863 -17.376827 16.265484 0.6349108 0.13692409 0.7603552 
60.332966 70.1889 -37.346283 0.35482422 -0.7634345 -0.53969204 
-33.47474 65.63723 8.343988 -0.6453089 0.67369765 0.3601498 
-3.2960403 32.909664 -9.275623 -0.0453324 -0.4187072 -0.9069891 
1.0505917 4.663829 20.38651 -0.07406751 -0.96968293 -0.23287122 
29.847624 -27.430992 7.664096 0.7001279 -0.27254575 -0.65995437 
-17.671635 82.19594 9.406556 -0.7335437 0.671222 -0.10665248 
29.00386 67.379105 6.360022 0.66411453 0.7297916 -0.16234572 
-33.355446 -3.8481178 19.348818 -0.42476347 -0.4461236 0.78774977 
-61.8892 69.679 -36.36589 -0.9903728 0.096748136 0.09900264 
-16.421997 24.587885 27.518814 -0.6451147 0.03914903 0.76308215 
-21.52762 31.796501 16.46533 -0.9619293 -0.23888168 0.13276848 
13.038285 79.57645 -9.488533 0.81701833 0.57246995 -0.06898719 
28.48802 -11.767376 20.19002 0.3721278 0.0659524 0.9258354 
24.102987 -27.135262 29.206127 0.18247093 0.32413602 0.9282458 
-10.78548 35.080246 -9.337599 -0.33751884 -0.5364422 -0.7735055 
17.470917 23.473104 22.61738 0.74884784 0.15158734 0.645173 
52.281498 54.33472 -22.205465 0.2912733 -0.6639544 -0.6887122 
46.193893 61.99896 -22.68843 -0.5756508 0.04481859 -0.81646645 
25.311258 -12.654766 20.786345 -0.006394113 0.05715328 0.99834496 
33.91495 -14.959087 3.5609412 0.84180063 -0.3376395 -0.42115462 
4.3998523 85.42542 -12.445974 0.25070527 0.94001323 -0.23134816 
61.77257 65.27644 -8.932005 0.9361046 0.2775467 0.21604641 
-21.250383 -4.155895 21.341396 0.16428393 -0.6454141 0.7459567 
0.3969056 25.30147 32.188988 -0.05146986 -0.11590684 0.99192566 
-12.882246 71.139046 -21.032333 -0.9923857 -0.07965371 -0.09394661 
-10.130657 84.57623 23.127607 -0.42233166 0.7627648 0.48972017 
51.856503 84.35431 -24.550142 0.0008812814 0.51884633 0.8548671 
-59.704548 76.512375 -34.947906 -0.7234438 0.60020036 0.34115773 
-24.340963 45.88071 -7.276904 -0.56764656 -0.3714938 -0.7346902 
50.146976 82.4023 -35.56031 -0.61147165 0.0091010025 -0.791214 
-18.323055 94.77974 -22.223576 -0.22085205 0.7473664 0.6266321 
-7.8112187 16.476433 -4.2013454 -0.293614 -0.2393378 -0.9254773 
38.375504 49.44686 -10.093922 -0.26032406 -0.7786338 -0.57092977 
-62.049774 63.09361 -33.771446 -0.9934332 -0.0901086 -0.07050483 
22.595165 -17.39428 21.913754 -0.30996475 0.5653164 0.76442087 
33.699863 -23.93734 15.620295 0.9869202 -0.06062798 -0.14937484 
19.196686 -42.075264 30.386673 -0.0915742 0.082234904 0.9923969 
25.066399 -36.33322 8.647544 0.3461061 -0.40799743 -0.8448365 
33.790474 64.12679 7.1963563 0.50040704 0.8656007 0.018117039 
24.966532 61.637245 22.207108 0.9601204 0.18221064 0.2120568 
-20.367472 16.617044 0.95622766 -0.42807767 0.45011023 -0.7836774 
-48.257523 66.081184 -34.53476 0.8139241 0.009718269 -0.58089 
-51.86654 73.65204 -27.795647 0.21377382 0.9764796 -0.028078241 
31.5273 62.071594 -3.069695 0.051222343 0.89884186 -0.4352696 
14.20739 75.04184 -21.694416 0.8829048 -0.09536532 -0.45976567 
32.100155 -31.521297 14.827997 0.92328054 -0.3095296 -0.22747411 
22.624044 -53.554794 19.488018 0.20017992 -0.9704524 0.13472244 
-31.059141 -37.57499 5.330757 0.28569046 -0.18451907 -0.94039017 
6.414935 3.9382725 24.359842 0.36111498 -0.877794 0.31475955 
14.230343 27.686668 4.7050834 0.74038863 -0.120306626 -0.66132516 
5.8834686 89.309425 11.939843 0.48200956 0.8750969 0.04326856 
17.850502 -21.398426 5.2002273 -0.5550618 -0.09152629 -0.8267583 
0.903008 5.8842096 3.1808891 -0.10193631 -0.9097297 -0.4024932 
53.04119 52.434746 -8.883322 0.37247765 -0.8990101 0.23030685 
-21.852123 -24.536102 6.461735 0.82427925 -0.024674656 -0.5656455 
25.520628 68.75406 0.8712193 0.6735648 0.5923761 -0.4420418 
-39.474857 -43.07552 18.7389 -0.8447474 0.12872805 0.51945245 
20.923191 48.88633 -8.565828 0.63580537 -0.19719872 -0.74623334 
12.190196 -25.374126 14.263872 -0.99342716 -0.010283505 -0.11400334 
11.000112 91.25075 -26.459896 -0.8170031 0.24845672 -0.52036065 
-31.249056 -40.817505 5.67066 0.43784222 -0.047440793 -0.8977993 
17.804884 74.229195 -3.1485271 0.7601436 0.61919683 -0.19691893 
-21.212313 -22.323273 7.902476 0.89699334 0.12872802 -0.42288542 
6.505265 58.609215 -27.940279 0.7737989 -0.6326638 0.031174263 
9.219289 88.431046 -21.487474 -0.65826434 0.7092389 0.25232577 
-26.42987 66.886856 21.28494 -0.8491076 0.22457771 0.47810158 
15.28966 0.001953125 0.21773589 -0.4011852 -0.29376385 -0.86761355 
-33.71233 -14.692432 -1.1288425 0.27745456 -0.28914684 -0.91619486 
-35.079155 10.627975 16.994905 -0.71043485 0.5819397 0.39576325 
26.278614 -27.055305 5.0626826 0.24518543 -0.2728715 -0.93028235 
-6.0971055 61.86453 -41.144615 -0.84406877 0.30447757 -0.44140837 
-20.117476 80.65212 14.629961 -0.7019054 0.6940251 -0.16018072 
23.385225 -44.163437 6.9259186 -0.4539307 0.74454725 -0.48948577 
-51.934242 73.62564 -26.474234 0.12230894 0.99234444 -0.01711985 
28.795267 66.28978 2.6053226 0.64117 0.6830442 -0.34978792 
-37.299973 -16.945873 19.488396 -0.31248337 0.55179656 0.7732236 
-0.66354436 39.533813 33.99964 0.27890196 -0.27745533 0.9193651 
9.459463 52.906525 -13.025503 0.04748019 -0.011409101 -0.998807 
13.0093 31.930834 -3.8069801 0.7344808 -0.63607603 -0.23652747 
-31.555626 -37.943977 5.256256 0.14585128 -0.19897316 -0.9690909 
9.747629 21.242996 29.15696 0.5283675 -0.16383329 0.8330585 
-16.858385 82.31434 4.741438 -0.69101954 0.7109151 -0.13073531 
16.180384 -14.378662 17.809204 -0.51052994 -0.006596336 0.8598347 
55.405273 86.849846 -27.593515 0.4472621 0.72659034 0.5215583 
34.6267 3.8322258 10.596477 0.95154345 0.22187601 0.21292281 
10.497432 24.335707 0.5376276 0.75404584 -0.12045019 -0.6456831 
-16.327108 51.455566 34.960136 -0.6928022 -0.3417109 0.63502663 
