-0.048711073 -0.048350994 0.2004145 -0.27475986 0.60808885 0.7448053 
0.09966346 0.3699541 -0.030657206 -0.30445346 -0.57401127 0.7601442 
0.004730332 0.08256204 0.122920126 0.9640465 -0.23058239 -0.13208395 
0.09206847 0.20639428 -0.104074866 0.46086767 0.18042086 0.8689357 
0.0031706975 0.079210795 0.1209419 0.8736193 -0.30829874 -0.37648526 
-0.016569199 0.12311335 -0.24242496 -0.44226906 0.62840164 -0.63992923 
0.0043723006 0.07981904 0.13653171 0.9792493 -0.06492264 0.1919787 
-0.18504529 -0.0007647374 0.0241327 -0.4216911 0.63557935 0.64669585 
-0.06698893 -0.06679308 0.15075114 -0.8869993 0.19975643 -0.41632867 
0.10915039 0.16749988 0.09748317 0.30033085 -0.92034733 -0.25052384 
0.02892334 0.2118022 0.09629657 -0.43255997 0.5592157 0.70722675 
-0.08285633 -0.1450906 0.18550672 0.06752451 -0.46268642 -0.88394666 
0.053346027 -0.17114505 0.278527 -0.40758255 -0.30817956 -0.859594 
-0.20239638 -0.35705042 0.12468878 -0.9928685 -0.11183941 -0.04128049 
-0.10466863 -0.08905434 0.1182304 0.9342406 -0.35661185 -0.004741373 
-0.0516367 0.2271062 -0.042406563 -0.7990671 0.2882594 0.5276347 
-0.14568368 -0.036004934 -0.029786207 0.92616385 -0.15314262 -0.34462717 
0.08775952 0.38826752 -0.04515598 -0.9078937 0.36976123 0.19749834 
0.19912064 0.4419818 0.018456982 -0.29832453 0.8648713 0.4037327 
-0.096619934 -0.0693529 -0.2865596 0.6642667 -0.37292162 -0.64782655 
0.1912554 0.42112154 -0.13384193 0.6160168 -0.7289862 -0.2985002 
-0.19035822 -0.14791133 -0.28319803 -0.92088723 0.31410483 -0.23087856 
-0.24746497 -0.36235088 -0.025995713 -0.26201937 -0.3782511 -0.8878468 
0.018618887 0.124083914 -0.25016582 0.14071044 0.42809162 -0.8927139 
0.014571322 0.1862126 -0.12531364 -0.13612816 -0.9175218 -0.3736615 
0.009174962 0.14844586 -0.23634768 -0.2821353 0.54640484 -0.7885693 
0.06668451 0.29972166 0.0018014992 -0.3551597 0.8112264 0.46451402 
-0.098909326 -0.18534683 0.19804326 -0.49655166 -0.122785956 -0.8592788 
-0.067220815 0.019216169 -0.22600679 -0.16486242 -0.34149066 0.9253132 
-0.013545084 0.11388724 0.09917404 -0.63915807 -0.077221826 -0.7651887 
-0.04880615 0.18716307 0.018525695 -0.9711324 0.21957946 -0.093202375 
-0.10509973 -0.011547029 0.06302476 0.22856474 0.052569903 -0.9721083 
-0.075807765 0.006343545 0.08361596 0.97047174 -0.13846435 -0.19751509 
0.119756885 0.3185618 -0.14316407 0.3373981 -0.9028595 -0.26647183 
0.032616083 0.19822185 0.016880618 0.9760574 -0.21620886 0.023784209 
-0.13725372 -0.13436258 -0.2611805 0.4272552 -0.3502609 0.8335288 
0.14534777 0.37507182 -0.020838145 0.54075336 -0.07525309 -0.8378083 
0.08503112 0.39814454 -0.1011134 -0.9012614 0.39471474 -0.17868465 
0.062141366 0.26367205 -0.04681315 -0.28617495 -0.36248508 -0.8869659 
0.021438725 0.17983 0.108145505 -0.19322638 0.2295114 0.95393294 
0.124444366 0.4366094 -0.07473927 -0.8087681 0.48092288 0.33853704 
0.054501146 0.23237276 0.045706693 -0.5213362 -0.49583024 -0.6945221 
-0.07530658 -0.026934627 -0.2315745 0.14817692 -0.5662979 0.81077147 
-0.08067512 -0.027621295 0.11882401 0.82916266 -0.0667685 0.5550056 
0.13320696 0.2581216 0.04797077 0.3778986 -0.8855537 -0.27016163 
0.06408436 0.2987538 -0.05959765 -0.4848974 -0.039347373 0.8736855 
-0.09229484 -0.001894773 -0.28205907 -0.5073176 0.4604712 -0.7284196 
0.017779274 0.13537198 -0.24451983 -0.07169966 0.4836958 -0.8722944 
0.17550533 0.3570305 -0.09870438 0.8897556 0.39285958 -0.232371 
0.12691188 0.3161252 -0.118452966 0.3294523 -0.9399622 -0.0890633 
0.08843411 -0.050210487 0.2356441 0.9231298 -0.35813025 -0.13990755 
0.01683121 0.2708 -0.017234057 -0.55899006 0.8193954 -0.12696967 
0.21482633 0.3890323 0.019381275 -0.42811087 0.8015657 0.41738886 
0.08694542 0.3996526 -0.10656799 -0.88910174 0.4062373 -0.21087745 
0.087906905 -0.03868608 0.25316763 0.80484116 -0.13876426 0.57704 
0.01665046 0.2057415 -0.13781482 -0.43373775 -0.14006492 -0.8900862 
0.19600797 0.4192298 -0.061375894 -0.28391755 0.29865223 0.9111518 
0.18924865 0.32802773 -0.06338262 0.754642 -0.59928536 -0.26715645 
-0.061879124 -0.03761435 -0.28095168 0.38685226 -0.54759336 -0.741948 
0.0927298 0.3634935 -0.04805862 -0.20155075 -0.9672071 0.15455677 
0.08623803 0.18646872 -0.10394264 0.35671443 -0.49127716 0.7946078 
-0.05611091 -0.14067647 0.20187804 0.8238114 -0.45717758 -0.3351468 
-0.08351985 -0.3374269 0.22957861 -0.9463086 -0.22224396 0.2347502 
-0.05111752 0.021111598 0.15802169 -0.8775556 0.45845976 0.14039521 
0.08513748 -0.2702294 0.3306074 0.09818001 -0.1363313 0.9857862 
0.06154328 0.22355486 0.006754908 0.4266866 -0.58734107 0.6877274 
0.10802653 0.39550006 -0.12123294 0.05280993 -0.60497123 -0.79449415 
0.21044132 0.41849875 -0.019359712 0.61701924 -0.2270546 -0.7534809 
0.00884314 0.17161259 0.059643816 0.14556013 -0.9887168 -0.035374057 
-0.04527553 0.11111226 0.037217043 0.49940953 -0.54205334 -0.67584634 
-0.031912647 0.15128925 -0.060170226 0.5744977 -0.81450176 -0.08086599 
0.13189487 0.28527188 0.07903494 -0.46736303 0.06298119 0.88181925 
-0.020635307 0.1627205 0.003733214 0.16442013 -0.20398946 -0.965067 
-0.13232328 -0.028274491 0.00025145896 0.9904072 0.008619605 0.13791008 
0.21881247 0.24054673 0.05607398 0.7531515 -0.50873464 0.41707543 
0.15007527 0.3308887 0.024207363 0.12629056 0.9327194 0.33776504 
-0.22766212 -0.22654898 0.12738015 -0.89838696 0.14162162 0.41574535 
-0.03841113 0.19823071 -0.0032708757 -0.6435369 0.034987133 -0.764615 
-0.061690222 -0.40386635 0.20485884 -0.3373887 0.10001041 -0.93603784 
0.07712464 0.13990223 0.13233462 -0.52018774 -0.731996 -0.43998474 
0.049075443 0.16303933 -0.14669308 -0.35729688 -0.3552143 0.86380655 
-0.21217458 -0.18154894 0.114899434 -0.95304775 0.30225524 -0.018485038 
0.16274379 0.2811191 0.030911276 0.7280977 -0.25578007 -0.63596416 
-0.07003708 0.027053993 0.09062364 0.9428847 -0.31968176 0.09365926 
-0.17890781 -0.32336187 0.1547226 0.81795865 0.3545716 0.45301503 
0.08720624 0.06469162 0.20465775 0.9950288 0.07792954 0.062005393 
-0.051630978 0.13235745 -0.047963925 0.60709715 -0.73427945 -0.30375442 
-0.06451665 -0.37655056 0.20295304 -0.37333605 -0.017262582 -0.92753553 
-0.04507005 -0.08416728 0.13870548 0.25078222 -0.3253482 -0.91173285 
-0.032998715 0.23215134 -0.027451046 -0.4342929 0.3948935 0.8095979 
0.08291174 -0.012644794 0.21183927 0.9140075 -0.40359017 -0.041295864 
0.22020072 0.38233006 0.00510934 0.39891213 -0.5036561 -0.76628953 
-0.19381955 -0.21843584 0.11513419 0.94731796 -0.075812876 -0.31119296 
-0.07829441 0.06767145 -0.2509656 -0.7948743 0.5692233 -0.21014209 
-0.10169509 0.09182168 -0.0062724333 0.5584646 -0.004698423 0.82951504 
-0.031022266 0.21826234 -0.0035138559 -0.61196953 0.19173966 -0.7672869 
-0.08662927 -0.18884307 0.2000944 0.57623965 -0.41566548 -0.70368326 
0.09491785 0.12356901 0.15474111 0.7056787 -0.45447126 -0.5435747 
0.041425966 0.24341583 -0.1318419 -0.26903844 0.9616702 -0.05299699 
0.021451613 0.17601602 0.108946286 -0.090045005 0.22142914 0.9710103 
-0.18759589 -0.19180842 -0.293085 0.78772646 -0.6157868 0.01713744 
-0.024978392 0.11883052 -0.21316029 -0.6862489 0.40825945 0.6019856 
-0.045626216 -0.045907356 0.19956577 -0.15264885 0.5418373 0.82650506 
-0.2185599 -0.21350393 0.13421679 -0.7031866 0.40594292 0.58372855 
0.20177254 0.43389952 -0.13281089 0.8434551 -0.49767336 -0.20224936 
-0.025381193 0.23397633 -0.0020963745 -0.7668516 0.39295852 -0.5074665 
0.14667404 0.39892977 -0.16981117 -0.42736158 0.4402643 -0.7896388 
-0.06950541 0.057981297 -0.21235962 -0.5818887 0.11178065 0.8055499 
0.1580226 0.44277203 -0.051897958 -0.24150895 0.31276906 0.91861254 
-0.13958113 -0.07189797 0.13942583 -0.33004725 0.42289 0.8439389 
0.14307687 0.3463543 -0.03377091 0.41974127 0.8581505 -0.29562646 
0.06650429 0.25646687 0.036650065 -0.29702598 0.9233042 -0.2434849 
-0.08553448 -0.13949014 0.18423909 -0.64608806 -0.2541565 -0.71970457 
-0.014060875 0.23964837 -0.089656785 -0.07564931 0.73979074 -0.66857076 
-0.1043722 0.07295722 0.081814565 -0.78859866 0.58121806 0.20074286 
-0.263963 -0.20133409 0.017459055 -0.75615555 0.23956932 0.60896254 
0.096696295 0.30941683 -0.0030609015 -0.29217526 0.48445755 0.8245814 
0.0082176095 0.18023792 -0.015000844 0.1004108 -0.68090713 -0.7254538 
-0.0709543 -0.38617158 0.21602347 -0.9818442 -0.18492997 0.042224154 
-0.21859914 -0.28555852 0.10782262 -0.8416338 -0.39040193 -0.37314725 
0.2003875 0.46751982 -0.07984375 0.6532763 0.740807 -0.15631704 
0.15191025 0.46549076 -0.09203885 -0.39698055 0.5081142 0.764347 
0.15555306 0.4161451 0.0051569836 -0.6733457 0.7390697 0.019533016 
0.08079602 0.16810553 0.14330931 -0.7278204 0.49619088 0.47336254 
-0.12427178 -0.10793264 0.10733781 0.45438823 -0.882934 -0.11814772 
-0.090514205 -0.05515836 0.115713015 0.6620535 -0.5862472 0.466904 
-0.21700878 -0.145126 -0.009090036 0.74845624 -0.507325 -0.4271237 
0.05342652 -0.088518545 0.28467512 -0.45023942 0.2445541 0.85876524 
0.024390005 0.17811401 0.001628248 0.75391316 -0.62409353 -0.20523678 
-0.24102475 -0.124339625 0.0075925877 -0.9119217 0.26809195 0.31068558 
-0.041233163 0.042118423 -0.28642744 0.2360336 0.12372431 -0.9638363 
0.2214045 0.39236236 0.019011933 -0.4536414 0.8491829 0.27036625 
-0.16508204 -0.07382027 0.11900398 -0.7226637 0.5564927 0.4099671 
0.25115386 0.41452432 -0.014273573 0.44506198 -0.71703297 -0.5364546 
0.14735734 0.30966735 0.070183426 0.116097145 0.60862374 0.7849195 
0.07700829 0.13007337 0.14302209 -0.49048436 -0.55233926 -0.67405224 
0.15588862 0.34929693 -0.0081799105 -0.95772135 0.23659301 -0.16368745 
0.03185734 0.16409922 -0.22986199 -0.15956141 0.5026973 -0.8496091 
-0.15355094 -0.051752213 0.08748486 -0.90569675 0.41514504 -0.08583712 
-0.09406931 0.09110491 -0.044215295 0.4953641 -0.5281753 -0.6896704 
0.07675595 0.17810513 -0.11077257 0.117179975 -0.9262383 0.3582618 
0.13075407 0.2394502 0.039984174 0.96537685 0.25551996 0.052507542 
0.106886625 0.33032966 -0.09034526 0.5344603 0.6798934 0.5020928 
0.14206286 0.4141906 -0.025657084 -0.6211002 0.69589204 0.36051196 
-0.026042229 0.06098497 0.118547834 -0.5169771 -0.4528107 -0.7264277 
0.038871787 -0.058856912 0.25246942 -0.8450646 0.124902375 0.5198704 
0.039847266 -0.007432483 0.19000068 -0.538351 -0.5381944 -0.648479 
0.23947296 0.4460199 -0.01744305 0.30402496 0.55160505 -0.77672434 
-0.18525258 -0.25494647 0.14568862 0.7211584 0.619746 0.30958924 
0.18288423 0.38928694 -0.105997115 0.8892748 -0.4413652 -0.11994645 
-0.04927348 -0.3938393 0.20745103 0.7761621 -0.054210227 -0.62819874 
-0.052331537 0.08690223 0.07781652 0.8200362 -0.17941107 0.5434633 
-0.15852737 0.0014042249 0.022191342 0.40957555 0.14548849 0.9006003 
0.05705046 -0.14857036 0.27397537 0.21893996 -0.1605262 -0.96244305 
0.13331878 0.33853507 -0.16229746 0.36204433 -0.52845234 -0.76789457 
0.14069223 0.3657819 -0.17217238 0.345686 -0.12315092 -0.9302339 
-0.18934086 -0.11883385 0.013659033 0.5982128 -0.75457263 0.26974365 
-0.046859514 0.1799404 -0.024799366 -0.11246852 -0.045574743 0.99260956 
-0.022366943 0.024993904 0.12337568 -0.0074791037 0.063688286 -0.9979418 
0.07029047 0.021080328 0.23894922 0.4117102 0.0125208385 0.9112288 
0.034854747 0.024266608 0.24015093 -0.4086687 0.46029845 0.78810865 
0.118743055 0.35114515 -0.05206064 -0.18022025 0.9836136 -0.004995975 
0.005146539 0.20153062 0.042681135 0.7266054 -0.56322855 0.39346936 
0.17842422 0.34876102 0.05757281 -0.82629085 0.084005974 0.55694383 
-0.15681723 0.07117206 -0.024840664 -0.8669112 0.49458772 0.06203231 
0.055757504 0.28344494 -0.1106062 -0.45239815 0.19323954 -0.8706287 
0.22489363 0.4533888 0.035470314 0.034653254 0.6285732 0.7769781 
0.1865256 0.30031693 0.04739715 -0.5181986 0.76727706 0.3778308 
-0.15781738 -0.13563879 0.14507757 0.6309953 -0.22870165 0.74131 
0.17523386 0.41129798 0.064392045 -0.33281708 0.37710756 0.8643047 
0.24119318 0.38342118 0.023432562 0.82181144 -0.56811106 0.043310493 
-0.19427177 -0.2107601 0.111700974 0.94806623 -0.06875153 -0.3105538 
0.08970516 0.24769321 -0.10476949 0.7397366 -0.65765166 0.14242193 
-0.005120552 0.0039571645 0.18361798 0.6237231 0.40080816 0.6710606 
-0.20579286 -0.1744249 0.1335208 -0.8680753 0.3216722 0.3781167 
0.1184094 0.28757304 -0.04326354 -0.562621 -0.2393556 -0.79130685 
-0.05994456 -0.32827324 0.21559727 0.8629202 0.251805 -0.4381357 
-0.037838552 -0.0077403933 -0.258633 0.89019424 -0.44562054 0.09474442 
0.062152937 -0.26390243 0.29947528 -0.68012965 0.032931168 -0.7323518 
0.20763136 0.4144982 -0.020877015 0.688757 -0.25855365 -0.677321 
0.07693003 0.17406505 0.1306847 -0.8636447 0.35510257 0.35779884 
0.18740965 0.3947705 -0.098738015 0.8261808 -0.55272096 -0.10920071 
-0.027818415 0.03367634 0.124385804 -0.18335317 0.03396288 -0.98246026 
-0.098899156 -0.16299613 0.20897937 -0.9390636 0.3433589 -0.01625257 
0.05385449 0.031753205 0.23956713 0.030251857 0.44747698 0.8937836 
-0.0014670282 0.23017406 -0.113227025 -0.5864927 0.7986344 0.13494222 
-0.19398092 -0.25799125 0.110444464 0.7269108 0.5098553 -0.4600524 
0.08351277 0.33792067 -0.15564045 -0.5565705 0.04809659 -0.82940704 
0.0018820488 0.04056732 0.1493422 0.99951553 0.01727882 -0.025886847 
-0.04171025 0.03131371 0.13208546 -0.8195159 0.12389478 -0.5595032 
-0.11104096 -0.07975876 0.09472664 0.87259287 0.07509701 -0.48264074 
0.16152978 0.31049883 -0.04132559 0.7907931 0.17891599 -0.5853506 
0.18403706 0.42609012 -0.15702975 0.5753631 -0.64535576 -0.50246716 
-0.08742612 -0.18834515 0.199151 0.4585093 -0.45106134 -0.7657107 
0.08680402 0.24761091 -0.12119897 0.6336515 0.21304001 -0.74370676 
-0.15815327 0.06885635 -0.024730537 -0.8450966 0.5300216 0.069920786 
0.0058521824 0.08254403 -0.21427777 0.37985206 -0.5991087 0.7048271 
0.07101503 -0.22263062 0.293024 0.20289613 -0.21721764 -0.95480347 
-0.16096213 -0.17020957 -0.27920797 0.5245701 -0.84921205 0.060540304 
-0.042829625 -0.015002405 0.12782702 -0.71762115 -0.052843615 -0.694426 
-0.17917313 -0.19481148 0.14568083 0.93507665 -0.28289056 0.21355216 
-0.09720135 -0.07472723 -0.28330487 0.75843114 -0.47641608 -0.44475827 
-0.050179463 -0.3555385 0.24061216 0.46568137 0.29001054 0.836083 
-0.013650053 0.08314136 -0.20790696 -0.02584178 -0.5393389 0.8416922 
0.16072555 0.4821509 -0.11132319 -0.57795554 0.80333173 -0.14361586 
0.20778397 0.25783318 0.014888564 0.054881945 0.30706853 -0.95010364 
0.08864996 0.11513474 0.15447004 0.5208602 -0.38020742 -0.7642951 
-0.050593298 -0.38949788 0.20573069 0.6374435 -0.040071882 -0.7694544 
0.11137994 0.21506214 0.12175476 -0.11280221 0.8515668 0.51196647 
0.19311792 0.3340171 -0.064676024 0.8038931 -0.52886957 -0.27212656 
-0.17929398 -0.04155564 -0.05295664 -0.1606068 -0.2103706 -0.96433896 
-0.043715738 -0.041192785 0.13285759 -0.5831055 -0.25189307 -0.77235866 
-0.23697524 -0.23371206 0.012106165 0.97433627 -0.22137281 -0.040778957 
-0.106140666 -0.24443938 0.22492844 -0.9464637 -0.22328983 0.23312673 
-0.063217215 -0.39015305 0.22699417 -0.61102325 -0.40877417 0.67790437 
-0.19232215 -0.22622825 0.12161963 0.9247494 -0.0898819 -0.36981046 
-0.13636802 -0.08688704 -0.24813035 0.31006902 -0.24639197 0.918231 
-0.23467447 -0.2541383 0.017139833 0.91001076 0.32500812 0.25739104 
-0.26866385 -0.18758932 -0.0073701628 -0.92939365 0.35646453 -0.09571061 
-0.23288955 -0.18251581 0.0002411427 0.8582211 -0.47848395 -0.1857676 
0.042913575 -0.14933455 0.2997939 -0.6691305 0.01795572 0.74292797 
0.011331878 0.26928538 -0.095475346 -0.41478306 0.75426215 -0.5089633 
-0.07508936 -0.1996316 0.22007795 0.868094 -0.15055174 -0.47301894 
-0.10604968 -0.0370029 -0.23752251 -0.24187322 -0.22065403 0.9448858 
-0.17667718 -0.4316147 0.123827435 -0.51679003 -0.5167922 -0.68253493 
-0.07592689 -0.15192437 0.19176993 0.56458694 -0.24939847 -0.7867922 
0.09673318 0.3464198 -0.06774423 -0.1727808 0.5088054 0.8433646 
0.108960114 0.3933558 -0.12019591 0.065827414 0.12208405 -0.9903344 
-0.045727324 0.20185654 -0.030288361 -0.28530473 0.37602103 0.88159484 
-0.0544922 0.17180122 0.042193636 -0.84840566 0.52467895 0.07014116 
-0.03364624 0.15362991 -0.068127014 0.43185687 -0.803364 -0.41000727 
0.14089501 0.46291184 -0.10464394 -0.6786942 0.7343651 0.009059115 
0.21696861 0.45322567 0.010379301 -0.52572507 0.75387144 -0.39406973 
-0.1170204 0.10591764 -0.0058102496 -0.13571027 0.45492598 0.8801279 
0.12281038 0.43300092 -0.07471065 -0.81641364 0.39528254 0.42097566 
-0.07600052 0.03828072 0.0685362 0.6416923 -0.34726113 -0.68384266 
-0.011830212 -0.06141121 0.16554295 0.88850135 -0.026165904 -0.45812744 
-0.25929433 -0.19887422 0.021615637 -0.67870885 0.18043923 0.71189606 
-0.036141485 -0.10023497 0.20708132 0.7321998 -0.37261435 0.57012457 
0.14801088 0.33162415 0.022104196 -0.11413841 0.91261965 0.39255288 
0.1434606 0.3758781 -0.0031128991 -0.5503054 -0.009181604 0.83491296 
-0.06592322 -0.3912506 0.20579989 -0.6677561 -0.1511128 -0.72888047 
0.06387692 0.30508804 -0.030038431 -0.5658228 0.806993 -0.16913562 
-0.0078282645 0.14021881 -0.23144335 -0.5550166 0.6566918 -0.51060015 
0.08177737 -0.033035643 0.25808942 0.42320564 0.36175886 0.83067894 
-0.009473519 0.13419451 -0.20110549 -0.8396718 0.17823309 0.51301485 
0.12648088 0.3521161 -0.0086738 -0.4871386 0.73321503 0.4744383 
0.26067844 0.40463734 0.0078088087 0.6081478 -0.77794594 -0.15797576 
-0.058914244 -0.062616244 0.14072153 -0.6926578 0.24083741 -0.6798694 
-0.046154235 0.07171294 -0.27142382 -0.17889681 0.58925563 -0.7878919 
0.10021289 0.4063751 -0.12453693 -0.6263226 0.6565438 -0.4203216 
0.2185022 0.452509 -0.08465789 0.5196478 0.85178256 -0.066578336 
0.16740577 0.26976305 0.046655755 0.39872468 -0.8760958 -0.27106234 
-0.17116274 -0.07808185 0.1019081 -0.8784617 0.47601497 0.041410107 
-0.17074649 -0.15842408 0.14605828 0.4956582 0.09836395 0.8629296 
0.2202972 0.24371706 0.026995573 0.7189949 -0.5627661 -0.40784883 
0.078151606 -0.16946192 0.29138857 0.86818576 -0.018700983 -0.49588683 
-0.17423937 -0.13518426 0.08389573 -0.12970884 -0.34626612 -0.92912614 
0.031409338 0.1749117 -0.15557279 -0.4679337 -0.04630728 0.8825495 
0.059659675 0.117697075 0.17885685 -0.624944 0.5691994 0.53428185 
-0.121541254 0.005432029 0.06232238 -0.3516877 0.007625883 -0.9360863 
-0.077520296 0.18520248 -0.050916374 -0.7690001 0.6388935 0.021305231 
-0.045827508 0.14286081 -0.035065673 0.7186666 -0.39285758 0.57374316 
-0.20420878 -0.33940274 0.12730223 -0.98279804 -0.18130432 -0.03516746 
0.09360937 0.27904785 -0.042653214 0.7733488 -0.24535331 -0.58457965 
-0.058968842 0.067528635 0.08290139 0.9328463 -0.09851308 0.3465443 
-0.24091417 -0.4022246 0.0019253474 -0.70242643 -0.09973277 0.7047343 
0.13759673 0.3373261 -0.15921825 0.48710188 -0.5596251 -0.67048603 
0.03680367 0.05437861 0.19575077 -0.8936586 0.35808453 -0.27046216 
0.12741674 0.2316884 0.06357637 0.88347995 0.29178008 0.3665072 
0.14335404 0.19895105 0.032811664 0.9854283 -0.026921922 0.16794728 
-0.111985624 0.11614598 -0.00999268 -0.19017895 0.42243767 0.88621575 
0.10184776 0.28859198 -0.087662905 0.97453713 -0.15712187 -0.15996893 
0.2592682 0.42709225 -0.014577424 0.74418837 -0.06927048 -0.66436833 
-0.097111456 -0.21505687 0.24458453 -0.65705377 0.032404065 0.75314695 
-0.085035354 -0.015818205 0.12520891 0.8512202 0.083403036 0.51813906 
0.09769794 0.29794788 -0.04100653 0.6441173 0.22771636 -0.7302453 
-0.1887844 0.02048422 -0.023368627 -0.8515493 0.48092702 -0.20874122 
0.13223837 0.23039961 0.05167184 0.9164351 0.34710065 0.19916768 
0.06664235 -0.0052126804 0.18703288 0.34360993 -0.42090812 -0.83950496 
0.17581849 0.4798833 -0.07734791 -0.20096684 0.593013 0.7797101 
0.057625264 -0.24405171 0.3081094 -0.9923889 -0.07695366 -0.09613762 
0.07149837 0.3021986 0.00086306036 -0.2246677 0.84216 0.49019483 
0.07880616 0.3351848 -0.10222541 -0.45183164 -0.69511974 0.55915713 
-0.19009373 -0.36584663 0.14995606 -0.7170107 -0.30191773 0.62828445 
0.05623512 -0.1043882 0.25858375 0.23535448 -0.70620954 -0.66773975 
0.06820125 0.13758036 0.15863925 -0.87732106 0.47951558 -0.019303003 
-0.1347454 0.07613525 0.0020243628 -0.30065432 0.3180895 0.89912516 
0.17401588 0.3726033 -0.09870479 0.9416355 -0.33432326 -0.039377615 
-0.2196775 -0.06769463 -0.01579265 -0.89487803 0.4402267 0.07344231 
-0.10991155 0.063371 0.070641175 -0.85494024 0.44208264 -0.27136716 
-0.19829841 -0.20243752 0.1018265 0.82204103 -0.051265422 -0.5671158 
-0.0038650045 0.09349547 -0.20058621 0.074527934 -0.39697412 0.914799 
-0.04887413 0.20894594 -0.09942274 -0.51681256 -0.02172156 -0.855823 
0.09288095 0.23578715 -0.13330756 0.50414735 0.8616377 -0.058445536 
-0.024203598 0.055811647 0.12036388 -0.27797386 -0.41045347 -0.86848056 
-0.21830654 -0.23553799 0.14293231 -0.7733613 -0.03384476 0.63306147 
0.08042486 0.207166 0.041723825 -0.19566657 -0.9321044 -0.30478835 
-0.22038437 -0.08993057 -0.039909896 -0.7960899 0.03365527 -0.60424185 
0.22178605 0.44468057 -0.07681369 0.84821236 0.21430685 0.4843639 
0.22126079 0.44362253 -0.095225275 0.7816511 0.39254686 -0.48469424 
0.0688107 0.23404141 0.021239448 -0.40174162 -0.84658194 -0.34914562 
-0.25320807 -0.3303125 0.022169724 -0.36628175 -0.11455755 0.92342526 
-0.10270573 0.07410047 0.08418519 -0.7427653 0.6285701 0.23064984 
-0.08728123 0.031153725 0.11818302 0.41693822 0.2132759 0.8835587 
0.13783889 0.35316527 -0.025275026 0.69884354 0.41481137 -0.58270854 
-0.029449278 0.1687173 0.06322305 0.07744089 0.18041644 0.980537 
-0.027619936 0.18859997 -0.009524332 -0.6950006 -0.32883787 -0.63940585 
0.016633304 0.14850666 0.11676324 0.6143418 0.29047164 0.7336283 
-0.09755172 -0.007988852 -0.28154397 -0.59804183 0.3542071 -0.7189459 
0.043462772 -0.12013079 0.27199557 -0.8036394 -0.1530352 -0.5751034 
-0.26903695 -0.2856676 -0.01154092 -0.8125217 -0.06540444 -0.57925016 
-0.057224598 0.013977776 -0.22620207 -0.19182628 -0.40525854 0.8938502 
-0.0006945402 0.011496803 0.17289835 0.80926615 0.29831818 0.50605786 
-0.07137425 -0.16730045 0.20223731 0.7006242 -0.4224921 -0.575001 
0.021764217 0.15997875 0.069404304 -0.13685131 -0.5433051 -0.82830626 
-0.020988595 0.18616955 -0.09797535 0.18741994 -0.66263664 -0.7251113 
0.08748749 0.14551774 -0.19144058 0.871171 -0.48959967 0.036786757 
0.23716351 0.46241713 0.0062657795 0.34719604 0.93390125 -0.08534239 
0.08012999 0.24075411 -0.08439549 0.58207005 -0.75071657 0.31244048 
0.012736874 0.25001526 -0.030951437 -0.2932547 -0.88739914 -0.3557027 
0.029472396 0.27647585 0.007835591 -0.31911534 0.9144436 0.2489141 
-0.013661896 0.11291752 0.099369474 -0.63915807 -0.077221826 -0.7651887 
0.05768619 0.29323524 0.004124915 -0.52344775 0.7462499 0.41123414 
-0.12450312 0.027571611 0.1065407 -0.61192286 0.5765387 0.5414365 
0.14410166 0.30943328 0.070751466 0.047617596 0.61302966 0.78862363 
-0.077301025 -0.20326313 0.24522065 0.58861226 0.28395343 0.75690556 
-0.2091802 -0.32121402 0.121282816 -0.92983884 -0.35516417 -0.09621934 
-0.16370104 -0.085354134 -0.0080010835 0.9513703 -0.28863344 -0.10763479 
-0.036028493 0.0029555613 0.18896616 -0.52383906 0.090848014 0.8469588 
0.047260895 0.24344274 -0.120118394 -0.28044608 0.93402094 0.22125763 
0.038129516 -0.0041148914 0.24120116 -0.2168192 -0.42961255 0.8765971 
-0.02509396 0.25173438 -0.072165765 -0.6100573 0.7487372 -0.2592733 
-0.014722514 0.23911686 -0.008083573 -0.31884745 0.70376945 -0.63485813 
-0.195942 -0.31948733 0.15826558 -0.5313823 0.22711852 0.8161189 
-0.112940535 0.11005826 -0.056190535 -0.22280173 -0.020685794 -0.9746443 
-0.024305005 -0.07411313 0.15190092 0.7388535 -0.28046596 -0.612727 
0.08920367 0.23265946 -0.024894442 0.81124014 -0.558202 0.17406876 
-0.2688305 -0.2063853 -0.01736004 -0.7606112 0.00974461 -0.6491346 
-0.16481772 -0.15186945 0.11748291 0.7135629 -0.6684584 -0.20974106 
-0.101804055 -0.04089318 0.06985634 0.54399884 -0.5650768 -0.620285 
0.23757873 0.38814616 0.00937531 0.3744192 -0.5567804 -0.74148893 
0.08048888 -0.17452762 0.29773167 0.9929533 0.055611536 -0.104647614 
0.076419 0.1768746 -0.121071205 0.12519102 -0.9882935 -0.08719609 
0.041740257 0.23776336 -0.05055747 0.76882887 -0.4731416 0.43016177 
-0.1527133 -0.056211494 0.11532177 -0.88915586 0.42112854 0.17903249 
0.052386362 0.20521618 -0.092958696 0.08256693 0.040677868 0.995755 
-0.27356726 -0.24280357 0.0012494698 -0.99428874 0.06345427 0.08581034 
-0.07737016 -0.09895971 0.20405886 -0.9106993 0.27461803 0.30856395 
-0.06909152 0.086127594 0.09298167 0.39496902 0.2657345 0.8794229 
-0.076318964 -0.0064994367 0.097745895 0.9870523 -0.01613012 0.15958565 
0.18185137 0.37547344 -0.07788377 0.92183864 -0.1806746 -0.34288508 
-0.13843542 -0.04200093 0.13337591 -0.61840475 -0.09783118 0.77974653 
0.11321462 0.36924684 -0.018256031 -0.6749992 -0.3464267 0.6514328 
-0.095059276 -0.046201855 0.08171075 0.5523836 -0.5833443 -0.59546775 
-0.013320205 0.23786932 0.03291958 -0.522325 0.6529622 0.5484679 
0.09290173 0.23047584 -0.11815944 0.5754422 0.44309187 0.68741244 
0.026911484 0.21918538 -0.14361171 -0.5261509 0.124243975 -0.8412661 
-0.11107822 -0.095744215 -0.2626022 0.66198653 -0.30533308 0.68450385 
-0.008663535 0.08536847 -0.26882294 0.18352395 0.22836496 -0.95612156 
0.050686102 0.2638743 -0.10071826 -0.9137 -0.25482503 -0.31656998 
-0.17421384 -0.15796542 -0.29732314 -0.03648326 -0.11425699 -0.9927811 
0.10269304 0.2202331 0.11276095 -0.20834154 0.80314463 0.55816895 
0.092423655 0.33177817 -0.1598322 -0.31699166 -0.19668706 -0.92780954 
0.048732795 0.16336572 -0.14670058 -0.35729688 -0.3552143 0.86380655 
-0.039091352 0.15027666 -0.06717822 0.38716695 -0.79202956 -0.47200733 
0.043936122 0.054724403 0.18387805 -0.6108175 -0.16939971 -0.7734376 
-0.0378726 0.20230912 0.0379603 -0.8289741 0.45402884 0.32658798 
-0.13858414 0.01429349 0.093446165 -0.8972242 0.44074228 0.027110405 
-0.20375924 -0.048366837 0.013180804 -0.8352225 -0.19617589 0.51372993 
0.07243461 0.19137546 0.10811688 -0.76899964 0.45920634 0.4447124 
-0.19792159 -0.263869 0.1578244 -0.26090103 0.15096192 0.95348895 
-0.23461728 -0.42246032 -0.01047839 -0.2855509 -0.8502808 -0.4421348 
-0.10656437 -0.06320255 -0.2939803 0.20986724 -0.11293085 -0.97118604 
-0.071067035 -0.06384748 0.17221065 -0.9672528 0.24647652 -0.06059151 
0.25518996 0.445781 -0.0011685584 0.6801402 0.6517772 -0.33555296 
0.013547942 0.17123745 -0.16967429 -0.8242749 0.15086466 0.5457204 
0.11449532 0.4294523 -0.1035265 -0.7255564 0.6297061 -0.27755758 
-0.18505149 -0.17506568 -0.27242857 -0.06311003 -0.6961134 0.71515256 
-0.07180265 0.03675273 -0.21902418 -0.4615504 -0.35544643 0.81279093 
0.17001753 0.375062 -0.124079645 0.49173495 -0.86944765 0.047512926 
-0.15257542 -0.037570402 0.10952094 -0.9997825 -0.014985798 -0.014503199 
0.20172411 0.4333588 -0.115124986 0.8080408 -0.58420414 -0.07599709 
-0.12953064 0.021485355 -0.02678248 0.8643017 -0.30334753 -0.40120173 
-0.012700833 0.13728094 -0.2107743 -0.87913334 0.44803423 0.16244973 
0.026619656 0.27112317 0.020149464 -0.3988552 0.85309505 0.33636793 
0.049983487 0.28501832 0.0103957085 -0.44192636 0.7662819 0.46638307 
0.10000295 0.2957009 -0.061776027 0.70601225 -0.071563944 0.7045746 
0.062571704 -0.122639745 0.27126175 0.46998033 -0.21368925 -0.8564201 
0.034075942 0.21653798 -0.14929806 -0.6222642 0.1840981 -0.7608516 
0.06443389 0.17748864 -0.111191064 0.0056222267 -0.96880454 0.24776219 
-0.0075074667 0.039202157 0.17129123 0.6360833 0.2851644 0.7169932 
0.15817726 0.4526698 -0.06824225 -0.3785858 0.9229412 0.06965829 
0.22014977 0.4349175 -0.09184128 0.79542243 -0.58674794 -0.15175629 
-0.06262892 -0.16488038 0.22617508 0.90835583 -0.37133506 0.19235377 
-0.08435925 0.06218135 0.10743839 -0.009569276 0.3695659 0.92915523 
0.18225068 0.3868941 0.003964207 -0.0052334964 0.6367115 0.77108437 
-0.2538793 -0.3124497 0.019856174 -0.3917682 0.22426972 0.89231205 
0.016779361 0.24455225 0.048897028 -0.6150469 0.3681808 0.69725186 
0.11431521 0.3148113 -0.1355903 0.22328007 -0.9465486 -0.23279136 
0.23012602 0.4463135 0.039255127 0.3620331 0.37815496 0.8520158 
0.21708275 0.3957069 0.0020711366 0.58393466 0.8108535 0.039204247 
-0.049747236 0.23755738 -0.06277933 -0.6023569 0.795908 0.060800675 
0.19332469 0.39421958 -0.07624069 0.6757012 -0.46892446 -0.5688038 
0.09957904 0.13529007 0.14389649 0.6024429 -0.7071074 -0.37021834 
0.15723619 0.41832185 -0.014257031 -0.13295265 0.9821628 0.1329658 
0.045594953 0.21366635 -0.18982728 0.181292 0.98156637 0.06050357 
0.10733097 0.30118692 -0.06862305 0.8745927 -0.39895335 0.27554265 
0.18901543 0.43251026 -0.07635954 0.3619406 -0.121771574 0.9242135 
-0.08375713 0.108373284 0.04650684 -0.78076994 0.29046682 -0.5531974 
-0.19754739 -0.20355827 0.10304052 0.83328503 -0.10127334 -0.5434885 
0.09167658 0.2651484 -0.12280373 0.5195018 -0.28394192 -0.80591244 
0.071966924 -0.3191139 0.30077 -0.81278396 -0.2128052 -0.54230636 
0.003547967 -0.020234318 0.17221057 0.80789065 -0.24466483 0.53614527 
-0.046564642 0.090176575 0.056803476 0.79180056 -0.5717135 -0.2149314 
0.12156192 0.19885807 0.054644976 0.1374496 -0.80511594 0.57697135 
0.17157356 0.30535042 0.03860061 0.8494371 0.3070389 -0.42916626 
-0.05369096 -0.034348313 -0.27798307 0.60708815 -0.58646715 -0.5361905 
-0.20787276 -0.21415655 0.09484862 0.34469515 0.14699142 -0.9271347 
0.19325107 0.30548996 0.036543593 -0.4728513 0.16501208 -0.8655534 
0.07428462 0.31155735 -0.05313178 -0.20178881 -0.6564073 0.72691864 
-0.048503168 0.17782785 0.048124928 -0.6734488 0.57358366 0.46633518 
-0.015088961 0.24689028 -0.08577889 -0.30229276 0.25016648 -0.91980207 
-0.05321769 -0.03732251 -0.2727573 0.68262297 -0.6708538 -0.28979495 
0.12759194 0.37623495 -0.14623457 -0.9992586 -0.008939116 0.03744839 
-0.10293672 -0.07711126 -0.25999448 0.7181119 -0.417565 0.5567359 
0.0807609 0.12074103 0.14836742 0.13506122 -0.45567995 -0.87983763 
0.0077433055 0.23819889 0.045709413 -0.4060521 0.5862775 0.70099956 
0.20610517 0.40229404 -0.06317888 0.9700888 -0.2427004 0.004927395 
0.0733346 -0.32352382 0.31038767 -0.8182676 -0.29700404 0.4921654 
0.15262751 0.3757192 -0.05118615 -0.37793475 -0.88554454 0.27014098 
0.12066575 0.29024744 0.0046544718 -0.88841814 -0.23809679 -0.39245787 
0.0052114413 0.21334414 -0.02725941 0.3172601 0.1790851 0.9312758 
0.12399593 0.33189213 -0.07661711 -0.07876348 0.69561285 -0.7140862 
-0.20438138 -0.20626244 -0.29286754 0.23237544 -0.89239293 0.3868288 
0.016211746 0.19309227 -0.065510534 0.41951406 -0.6811676 -0.6000155 
-0.076202296 -0.3138016 0.24941169 -0.46419317 0.008565723 0.8856926 
0.084219456 0.2669754 -0.06966995 0.64122313 -0.56922495 0.5146026 
0.062455304 -0.20131221 0.28600723 -0.035490353 -0.23147334 -0.97219366 
0.06860885 0.18133189 0.10709928 -0.86865664 4.2249532e-05 0.49541458 
0.19985841 0.31268597 0.049896054 0.60128045 -0.094535954 0.793426 
-0.023093 0.22386427 -0.008378465 -0.6578726 0.11673201 -0.74402773 
-0.15262075 0.0760288 -0.01598337 -0.84561884 0.4491431 0.28844285 
0.15900894 0.28114915 0.08593107 0.44529414 0.06102224 0.8933025 
-0.11561388 0.011344619 0.060458727 -0.20279185 -0.044858728 -0.9781938 
0.08419353 0.22771056 -0.034875583 0.725249 -0.6133557 -0.31274384 
-0.050864268 -0.007497156 0.17591426 -0.8041666 0.061061494 0.59125924 
0.09952822 0.20733507 -0.14706954 0.6534956 -0.2558429 -0.71238184 
0.15713347 0.47745818 -0.12886308 -0.7091586 0.7005868 -0.07919728 
0.12798448 0.28594327 0.019233909 0.6929124 0.20125718 0.69236404 
-0.076109715 0.10537585 -0.035743512 0.78380644 -0.60527015 -0.13890839 
0.12853363 0.22447357 0.09927726 0.33763552 0.93431294 -0.114287384 
0.20121098 0.4013496 -0.07268774 0.7131782 -0.41856462 -0.5622993 
0.050343417 0.022410294 0.24350253 0.117038086 0.29780346 0.94742554 
-0.10744947 -0.056006327 0.13063586 0.64143443 -0.21457815 0.73655826 
-0.0044484823 0.2587896 -0.04042562 -0.46448383 0.19633684 0.8635431 
-0.05928709 0.16005085 0.03364564 -0.8456102 0.40685862 -0.34555668 
0.0734351 0.0872226 0.2052216 0.16886094 0.6722052 0.720851 
-0.03348317 0.18766718 -0.0046144295 -0.4886188 -0.33943787 -0.80376214 
0.16269772 0.40479863 0.03945779 -0.8783985 -0.1996337 0.4342379 
-0.09213084 -0.16922392 0.23385602 -0.77044857 0.09499233 0.63038516 
0.118753135 0.34908223 -0.098494396 0.3047647 0.31778574 0.89784783 
0.033955596 0.1473974 0.094204426 0.8428655 -0.5065235 0.18169114 
-0.105839536 0.0032205028 -0.23803207 -0.7657609 0.561465 0.31363553 
0.028512169 0.19887125 -0.06183766 0.5362223 -0.7749842 -0.3344625 
0.05446106 0.27438956 -0.11102937 -0.5999278 0.007349537 -0.8000204 
0.235088 0.39454788 0.046389136 0.7290224 -0.1089297 0.6757667 
-0.17831077 -0.14363155 -0.2954302 -0.3530503 0.2039878 -0.9130961 
-0.077148646 0.00087523274 -0.2267546 0.34477186 0.09432354 0.93393546 
0.19289854 0.39630467 0.063934654 0.28786 -0.31012896 0.9060666 
-0.052146617 0.223615 -0.041531116 -0.8069084 0.093761824 0.5831874 
0.04481517 0.20527495 -0.0074300766 0.20783713 -0.94165444 0.26474634 
0.14574836 0.41200697 -0.15916954 -0.61909425 0.4278709 -0.65852016 
0.015580043 0.18614051 -0.056008294 0.6223693 -0.74924886 -0.2264566 
0.15955505 0.47816038 -0.13193473 -0.3580497 0.8700139 -0.33893403 
0.020752035 0.21581253 0.06596883 -0.96585643 0.093258746 0.24171093 
-0.0018173185 0.23404458 0.04431954 -0.33947152 0.63577235 0.693219 
0.068503514 -0.15008365 0.28132617 0.70404106 -0.028148556 -0.7096012 
0.17132272 0.43851906 -0.06807859 0.27138054 -0.91439414 0.30039296 
-0.16630808 0.05695387 -0.029167376 -0.82946336 0.5504354 -0.094928436 
0.013527872 0.27505738 -0.062632605 0.28856915 0.9406705 0.1785131 
-0.012825126 0.1997353 -0.11087763 -0.3027491 -0.27834827 -0.9115181 
0.14161813 0.352351 -0.011813894 0.8725925 0.47626272 0.10842556 
-0.16926774 -0.078677334 0.116217226 -0.82285255 0.49789542 0.27388653 
0.078771636 0.23869552 0.0136887105 0.54622287 -0.74843115 -0.37615335 
0.04082703 0.17954887 -0.14391261 -0.6899921 -0.6206667 0.37240276 
-0.1077256 -0.062848315 0.12946576 0.7543264 -0.08776317 0.6506069 
0.056366354 0.2703811 0.028338805 0.5144125 0.5129064 0.6872458 
-0.012631207 0.124341086 -0.24377286 -0.39616486 0.6067206 -0.6891614 
-0.097353816 -0.02635838 -0.23066476 -0.1500453 -0.49013534 0.8586348 
-0.21833691 -0.08962615 -0.041697603 -0.65607774 0.04197012 -0.7535254 
0.24667229 0.40732366 0.037560932 0.6188611 -0.34021953 0.70799834 
-0.044586197 0.0930615 -0.25399497 -0.35102957 0.75778633 -0.55003464 
-0.14506629 0.08186164 -0.007679956 -0.70782113 0.44535705 0.5483123 
0.13795349 0.35853475 -0.009013021 0.38459706 0.07191801 0.9202787 
0.20959307 0.25432414 0.014473248 0.1251453 0.13562894 -0.9828242 
-0.04279133 0.036281694 0.13513377 -0.8932877 0.18960151 -0.40753934 
0.060133312 0.12178931 0.17354178 -0.7368392 0.6158906 0.27883106 
0.004626218 0.2199941 -0.012758739 0.46420026 0.4575137 -0.758419 
-0.22670299 -0.22511238 0.10327922 -0.8548798 0.034310628 -0.51769036 
0.07037102 0.3509093 -0.12454642 -0.96151227 0.2669337 -0.0651192 
0.18153512 0.4063385 0.044060867 0.6002532 0.32015872 -0.7329355 
-0.2133782 -0.21197891 0.13971607 -0.7503236 0.429008 0.5029579 
-0.09253409 0.03579035 -0.2551082 -0.9756095 0.21856126 0.020423738 
0.15571105 0.33956605 0.01335261 -0.30069473 0.7123945 0.63409525 
-0.1976763 -0.14454208 0.116218284 -0.9035022 0.42051482 -0.08277101 
0.022565857 0.27230972 -0.06846811 0.4583792 0.87138915 0.17484127 
-0.006642119 0.1463914 -0.22078153 -0.74076724 0.65014184 -0.16905461 
0.052301865 -0.10667278 0.25969207 0.04514083 -0.60234606 -0.7969577 
0.055248618 -0.017156703 0.24496919 -0.41967702 0.31684646 0.850576 
-0.06796327 0.07739127 -0.25445017 -0.6217927 0.6883862 -0.3734947 
-0.03312161 0.17960078 -0.09624413 0.14124103 -0.3829534 -0.91290617 
0.1998164 0.28280908 0.03349653 -0.54977137 -0.003231397 -0.83530897 
0.06629544 0.22544886 -0.16966541 0.02365481 0.28128394 -0.959333 
-0.16092579 -0.076468594 -0.0068262815 0.9397637 -0.3355495 -0.06519723 
0.16891003 0.32949662 -0.09331822 0.55663294 -0.76650953 -0.32034817 
0.1218428 0.31237042 0.05880784 -0.4727157 0.82652414 0.3056103 
0.21847159 0.39184868 0.034575753 -0.7095604 0.4843853 -0.51175666 
-0.20050737 -0.0150692705 -0.02771917 -0.9047764 0.23841669 -0.35289815 
-0.07245453 0.025375964 0.07887285 0.86698675 -0.27799997 -0.41358194 
0.090633765 0.33155316 -0.052101754 -0.07468359 0.93338513 0.35101926 
0.0315729 0.19537273 -0.14704289 -0.92914724 -0.19768767 -0.312418 
0.11472146 0.3443054 -0.07268352 0.5372099 0.6570871 -0.52881193 
0.17629492 0.3882904 0.025956765 0.66922754 0.6748336 -0.3110211 
0.13199557 0.4532919 -0.1203911 -0.75027376 0.6285633 -0.20493287 
-0.0046984972 0.14781617 -0.22280307 -0.7043278 0.64992195 -0.28552368 
0.020008503 -0.003906533 0.2183494 -0.9445048 -0.32824323 -0.012925341 
-0.20406413 -0.08891578 0.028638326 -0.25221023 0.04945811 0.9664077 
-0.19343923 -0.034647107 0.027899086 -0.53823256 -0.31270653 0.7826368 
-0.12887698 -0.09549321 0.14520982 0.2557138 -0.27925384 0.9255419 
-0.08820492 -0.1292337 0.19391024 -0.9698479 0.2398927 0.042971216 
0.049778465 -0.19641513 0.31031597 -0.86243904 0.06743544 0.50164866 
0.123232186 0.3152514 -0.086126626 0.33526623 -0.9302581 -0.14905189 
0.16269611 0.31979722 0.05277145 0.647677 0.6721867 0.3587194 
-0.06434144 -0.057961874 0.15056483 -0.8476052 0.30154368 -0.43661976 
0.19720945 0.41013527 0.06334544 0.31580284 0.15051898 0.9368098 
-0.20866758 -0.08811532 -0.045851585 -0.18456295 -0.028095657 -0.982419 
0.006137887 0.23624432 -0.047689028 0.7881863 0.35863957 0.50014 
-0.010986066 0.16992168 0.062179912 0.043464627 -0.5671373 0.82247555 
0.11404871 0.3309943 0.0068147574 -0.61922514 0.20790423 0.7571896 
-0.13087328 0.003625711 -0.0066408236 0.9836639 -0.1538559 0.093454316 
0.1519803 0.40010577 0.01582235 -0.98794365 -0.072835706 0.13661006 
0.12379724 0.20522052 0.13455644 0.12816697 0.66446644 0.73624563 
-0.06959459 -0.021271084 -0.22980832 0.31475684 -0.25506482 0.9142593 
0.05907816 0.25878 0.03530372 0.5750313 0.7262531 0.3766901 
0.10290987 0.2876795 -0.07397159 0.91407895 -0.40505365 0.019779747 
0.14405146 0.35671204 -0.09325011 -0.83330077 0.18037732 0.52256465 
0.06808777 0.26218343 0.06337395 -0.8470849 0.48357284 0.22046436 
-0.08867544 -0.005822827 -0.2862918 -0.41539168 0.34604356 -0.8412512 
0.16290212 0.35180515 -0.043172847 -0.7881497 0.61179394 -0.06729232 
0.005932899 0.18331675 -0.06549992 0.6676203 -0.55593574 -0.49519548 
-0.06532801 0.15107429 0.039334223 -0.83593917 0.37611267 -0.39968112 
0.065265 0.20993996 -0.1692438 0.514481 0.025895776 -0.8571107 
0.10251271 0.29387015 -0.09035688 0.94546705 -0.23842588 -0.22191255 
0.08097903 0.28814608 0.03622791 -0.48330176 0.86734426 0.11888378 
-0.20374219 -0.020504214 -0.024221864 -0.9196093 0.21602102 -0.3281061 
0.08517604 0.31710857 -0.10381258 0.2446687 0.9648093 -0.09633424 
0.009550413 0.12122919 -0.25283653 0.094353236 0.551723 -0.8286731 
0.06863789 0.17857093 0.10612323 -0.91681355 -0.15474503 0.36811253 
0.06825078 -0.14477426 0.280618 0.7499188 -0.13527946 -0.64755017 
-0.2058731 -0.1658193 0.12002512 -0.9308383 0.34951457 0.106675394 
-0.17981867 -0.1292071 -0.28941923 -0.593654 0.40850922 -0.6933218 
-0.08366875 -0.26137912 0.25010985 -0.5061659 0.011464793 0.86235994 
0.07926402 0.019405331 0.19299887 0.64899796 -0.016723938 -0.7606063 
0.11969442 0.22929482 0.01930161 0.15270017 -0.2219901 -0.9630177 
0.059205625 -0.10864938 0.2631993 0.3351153 -0.5136928 -0.78982115 
0.19035682 0.3791948 0.05882985 -0.168977 -0.034762442 0.98500675 
0.094547056 0.36461663 -0.043296263 -0.2338509 -0.91143245 0.33853304 
0.014325736 0.18795326 -0.19303751 -0.8488898 0.5275971 0.03205134 
0.06953456 -0.10674282 0.26907128 0.6304024 -0.4972815 -0.5960738 
0.22023046 0.43454057 0.050130285 0.46885782 0.4769106 0.7434572 
0.13200647 0.34794503 0.00073497184 -0.15130764 0.8477155 0.5084136 
0.23323189 0.4082499 0.0020235293 -0.76180494 -0.366139 0.5344113 
0.08875722 0.39936477 -0.11323498 -0.8258194 0.50815046 -0.24455161 
0.1784552 0.47919828 -0.076193735 0.024541022 0.57915956 0.8148447 
0.06725835 0.2342038 -0.04534682 0.071022816 -0.020615276 -0.99726164 
-0.12128203 0.042003624 -0.028738782 0.77213824 -0.41940472 -0.477391 
0.05194199 -0.1071525 0.26003438 0.04514083 -0.60234606 -0.7969577 
0.11925694 0.36156487 -0.01970413 -0.6793762 -0.67888856 0.27849287 
0.0906094 0.29328263 -0.115908876 0.5170203 0.2505314 -0.8184889 
-0.04094474 0.004956083 -0.2731823 0.4591908 -0.27763212 -0.843839 
0.03988089 -0.08785328 0.2485459 -0.76524675 -0.5178489 -0.38240013 
0.050697412 -0.10510298 0.25812614 0.051148027 -0.6825043 -0.7290897 
-0.2116261 -0.3104933 0.13152693 -0.9591398 -0.17816895 0.21978758 
0.19357121 0.34234917 -0.07357021 0.79297966 -0.33371237 -0.5097248 
0.1107733 0.19986399 -0.13101184 0.83572644 -0.2416667 -0.4931111 
0.10415875 0.26002055 0.005839735 0.12013166 0.14238414 -0.98249435 
-0.07326738 0.09472158 0.09120754 0.030041277 0.38795158 0.92119 
0.09718331 0.40966135 -0.11375107 -0.6126836 0.69877416 -0.3692337 
0.009773974 0.17860846 -0.013096383 0.084080555 -0.7368592 -0.6707973 
-0.057030804 -0.020157188 0.16514105 -0.9746832 0.08656906 0.20615153 
0.1113401 0.28456527 -0.038287148 -0.04906694 -0.585684 -0.80905294 
-0.08226736 -0.0076392293 0.1158329 0.90870035 0.12789463 0.39737475 
0.048286527 0.16682585 -0.23075186 -0.012314917 0.35871652 -0.9333653 
-0.05856619 -0.36965024 0.20289111 0.020084502 0.21010102 -0.9774734 
-0.10548469 -0.038613085 -0.2883565 -0.38624868 0.42909402 -0.81651103 
0.012741002 0.20636722 0.03831111 0.47553787 -0.49137515 0.7296672 
-0.049794614 -0.028233606 -0.27821857 0.79319113 -0.2555032 -0.55278015 
-0.05543229 -0.072438315 0.13792303 -0.4443827 -0.016114308 -0.8956921 
0.084359445 -0.021369725 0.24782602 0.615688 0.6238349 0.4814127 
0.020475911 0.21454614 0.06585272 -0.9631953 0.19919786 0.18048525 
0.0995464 0.14097652 0.17302378 0.49681163 0.13811445 0.8567979 
-0.20028177 -0.35318965 0.117793 -0.814995 0.09935632 -0.57088655 
-0.067474514 -0.37893325 0.23012193 -0.7446273 -0.41801798 0.520376 
0.10627275 0.29338545 0.016262107 -0.31369632 0.8065849 -0.50101435 
0.17377476 0.33956313 -0.100020185 0.78719866 -0.4058945 -0.4642929 
-0.21538582 -0.1215176 -0.03130525 0.019765565 -0.6900844 -0.72345895 
0.13402097 0.18319203 0.119945765 0.8447524 -0.52988183 -0.07495769 
0.16843514 0.4327445 -0.06931693 0.6424602 -0.030945973 0.7656939 
-0.1811584 -0.092900105 0.028933492 0.45472035 -0.19766913 0.86842173 
0.07873491 -0.23456787 0.29805735 0.49781305 -0.16648257 -0.8511555 
-0.09167326 -0.000545857 0.13370554 0.77992815 0.12819016 0.6126005 
0.13078353 0.22472349 0.024037471 0.6368872 0.48593152 -0.59853595 
0.05279544 0.29538494 -0.009669794 -0.5741473 0.78065354 0.24685009 
-0.028265664 0.19106054 0.0572026 -0.5134662 0.31622463 0.7977183 
-0.18544932 0.0137949055 -0.0385336 -0.7223429 0.44877672 -0.52613705 
0.11457168 0.23141941 0.09164167 0.4161723 0.825582 0.38107076 
-0.012540492 0.17749971 0.06645313 -0.3069428 -0.3797286 0.8726926 
-0.09974596 -0.1924857 0.19998267 -0.34348848 -0.25092024 -0.9050164 
0.024065077 0.19124277 -0.13387324 -0.23978461 -0.6467705 -0.7240106 
-0.079339705 -0.22571345 0.24647208 0.2849803 -0.14545844 0.94743234 
-0.06773557 0.06276805 0.09867336 0.7069425 0.14522724 0.69220036 
0.12661256 0.21841027 0.0818505 0.8813646 0.33554706 -0.3325727 
0.07890584 0.2492748 -0.045915596 0.07001808 -0.16486768 -0.9838273 
0.06976752 0.19731432 -0.1772305 0.69446695 0.6712162 0.25919974 
-0.09743184 -0.03807562 -0.23609465 -0.11876784 -0.44020647 0.890007 
0.10842062 0.26495266 0.0068690865 0.17329615 0.1264957 -0.97671247 
0.18083633 0.42502797 -0.15986302 0.6496434 -0.6067825 -0.4580157 
0.094005555 0.33594167 -0.059384264 -0.21807714 0.7766311 0.59100467 
0.1568237 0.25932294 0.05993854 0.46898955 -0.8569877 -0.21359034 
0.07128027 0.14362589 0.14100306 -0.99342984 -0.042071287 -0.10642894 
-0.08754297 0.09192076 -0.038525734 0.6946413 -0.5672268 -0.44241062 
0.11247952 0.38901317 -0.14003745 0.5031372 -0.75795203 0.4151647 
-0.23038852 -0.18064868 0.0228415 0.8283127 -0.39503643 0.39729625 
-0.18793644 -0.2128959 0.131203 0.93035674 -0.13942784 -0.33911094 
0.022772698 0.18460219 -0.10799033 -0.13999666 -0.8950581 0.42340517 
-0.092678614 -0.2905956 0.23054524 -0.90763444 -0.21148227 0.36259475 
-0.1282517 0.11365265 -0.026214827 -0.7937354 0.56133205 0.23428707 
0.16929078 0.420516 -0.16796532 0.49185935 -0.1373213 -0.85977745 
-0.15712155 -0.035148457 0.01977586 0.27419502 -0.19018601 0.9426804 
-0.09229618 0.16771612 -0.055625297 -0.7470726 0.59146386 -0.30340242 
-0.043602604 0.17470726 -0.09329165 -0.28060344 -0.385338 -0.87907696 
0.104639836 0.42354685 -0.08629433 -0.5414578 0.7884951 0.29171714 
-0.047592554 -0.114832945 0.18035172 0.63797396 -0.6809317 -0.35961264 
-0.18753463 -0.25320262 0.14798726 0.7736227 0.44434062 0.45174038 
0.06719528 -0.04186726 0.26523122 0.07189616 0.40957454 0.9094392 
-0.17233479 -0.16501136 0.12389488 0.80012345 -0.40663385 -0.44096643 
-0.27012068 -0.2986619 -0.0032444 -0.9911114 -0.11801869 -0.061398704 
-0.16582793 -0.08501532 0.010696621 0.9371794 -0.12256818 0.32660657 
-0.16643651 -0.07669531 -0.025636919 0.847772 -0.2922527 -0.44257313 
-0.087514065 0.17090306 -0.059894763 -0.7971791 0.5006478 -0.3374274 
0.1311653 0.2921493 0.016455647 0.68811303 0.4331478 0.582137 
0.00642635 0.21472275 -0.13207604 -0.6079634 -0.002570878 -0.79396087 
-0.18700637 -0.38237768 0.119324796 0.042665306 -0.2718442 -0.961395 
0.07031568 -0.2127929 0.29026723 0.18028557 -0.29961157 -0.9368725 
0.12048793 0.4295538 -0.076329134 -0.83492124 0.37099004 0.40653768 
0.2213856 0.44824946 0.041889604 0.19843154 0.7677096 0.6093004 
0.0991256 0.18783338 0.042105284 -0.8353012 -0.5447348 -0.0744039 
-0.13981558 -0.109280095 0.077542454 0.41194 -0.7905574 -0.45312744 
-0.08195193 -0.110042945 0.18900451 -0.93500036 0.3430379 -0.089996174 
0.067270406 0.19314699 0.09999739 -0.5801965 0.44736347 0.68061584 
0.08001106 0.24132235 -0.14089358 0.4030262 0.915034 -0.016812323 
-0.24121162 -0.27885932 -0.0075915903 0.8774339 -0.17629163 -0.4461289 
-0.0011509723 0.12928918 0.08991254 -0.50436324 -0.2513546 -0.82609844 
-0.1607746 -0.07531044 -0.0018872013 0.8940694 -0.41823468 0.16037382 
0.0802776 -0.021307588 0.21905206 0.9617662 0.08507185 -0.260324 
0.08184232 -0.039025664 0.25918546 0.5991238 0.05306708 0.7988959 
-0.027817406 -0.096954346 0.173672 0.63994455 -0.7053526 -0.30487487 
0.1409984 0.44241214 -0.06372143 -0.4285731 0.7386768 0.5202708 
0.10409257 0.41441917 -0.11574738 -0.63210195 0.7164014 -0.29532376 
-0.16526 -0.12668926 -0.2547663 0.042305034 0.25214714 0.96676373 
-0.15452184 -0.08189368 0.067543864 -0.43876708 0.14590737 -0.8866761 
0.050197374 0.23137538 -0.08516419 0.6728398 0.021761406 -0.73946804 
0.051034544 0.21752933 -0.07086618 0.726465 -0.6872025 -0.0011634808 
0.12896316 0.27853954 -0.012236645 -0.5112194 -0.84661597 0.14797348 
0.14088427 0.3212868 0.051505372 -0.2800364 0.9136544 0.2946443 
-0.020696709 0.08777698 0.111784615 -0.49849212 -0.05910769 -0.8648768 
0.0018473985 0.25422126 0.0030974718 -0.857591 0.51160544 -0.05289267 
0.025634607 0.092054576 -0.2292602 0.8242522 -0.5290498 0.20177864 
0.13070802 0.21656491 0.088500075 0.76601803 0.44722775 -0.46173993 
0.040441643 -0.12566134 0.2833534 -0.97561604 0.21023981 0.06302829 
0.19711976 0.33760464 -0.04130059 0.8285105 -0.44880387 0.3348812 
0.07799145 -0.020369513 0.20922883 0.7581586 -0.45494986 -0.46713609 
0.10216852 0.20076008 0.05743402 -0.06111549 -0.9913124 0.11646734 
0.15347531 0.32454383 -0.10904207 0.39293367 -0.8914599 -0.22561558 
0.14523095 0.3691073 -0.019799259 0.42253333 -0.31714362 -0.84904975 
0.113232575 0.32933205 -0.08257211 0.37859064 0.8155404 -0.43767917 
0.11864963 0.42685908 -0.07685605 -0.62256134 0.5112876 0.5924545 
-0.16164099 -0.078489676 -0.006733181 0.9397637 -0.3355495 -0.06519723 
-0.052711606 -0.07063109 0.13679308 -0.2841777 -0.085646145 -0.95493865 
0.09565214 0.24144621 -0.027601719 0.8473135 -0.53073484 -0.0195028 
-0.14127722 -0.04315518 0.13091603 -0.59363526 -0.15329573 0.7899985 
-0.17787106 -0.42872727 0.122545116 -0.51679003 -0.5167922 -0.68253493 
-0.05986628 -0.1599763 0.21421966 0.8985207 -0.42137152 -0.12290906 
